# .PCD v0.7 - Point Cloud Data file format
VERSION 0.7
FIELDS x y z
SIZE 4 4 4
TYPE F F F
COUNT 1 1 1
WIDTH 1564
HEIGHT 1
VIEWPOINT 0 0 0 1 0 0 0
POINTS 1564
DATA ascii
33.240898 51.9939 -73.183899
32.702801 51.152302 -67.260002
32.936798 51.5182 -60.1115
33.191002 51.915798 -54.145699
33.064098 51.7174 -48.697601
32.854401 51.3894 -43.108101
33.058701 51.709 -36.194901
30.725599 53.052898 -173.168
30.1987 52.143101 -165.356
30.5928 52.823502 -158.22501
30.509701 52.680099 -153.479
30.4191 52.523602 -145.325
30.522499 52.702099 -140.269
30.555901 52.759899 -131.772
30.3641 52.4286 -126.549
30.392401 52.477501 -119.904
30.349701 52.403801 -113.098
30.3631 52.426899 -106.007
30.377899 52.4524 -101.682
29.264601 50.530102 -95.659798
28.6964 49.549198 -88.071999
30.073999 51.9277 -83.143799
30.247299 52.227001 -76.867401
30.148001 52.055599 -68.412102
29.8915 51.612598 -63.952801
30.061399 51.905899 -55.683701
30.090401 51.9561 -49.551399
29.827101 51.5014 -45.025299
29.973301 51.753899 -36.579899
27.4258 52.543499 -170.02499
27.443001 52.576401 -164.535
27.1612 52.036598 -157.98199
27.2966 52.295898 -152.918
27.3183 52.337601 -144.48801
27.432899 52.557201 -139.61
27.124001 51.965401 -133.077
27.2938 52.2906 -125.735
27.237499 52.1828 -119.677
27.3543 52.406502 -113.902
27.4286 52.548801 -104.997
27.5294 52.742001 -98.778198
26.782101 51.3102 -95.180099
26.8393 51.419899 -86.980797
27.193899 52.0993 -81.7565
27.264299 52.2341 -74.369499
27.4093 52.511902 -66.790398
27.202499 52.115799 -61.627102
27.0903 51.900799 -54.8699
26.834101 51.41 -49.945
26.9543 51.640202 -42.8843
26.8041 51.352501 -37.430302
25.2089 53.9412 -172.246
24.7034 52.859699 -167.12601
24.599899 52.6381 -158.821
24.471399 52.3634 -153.345
24.5723 52.579102 -147.595
24.6663 52.7803 -141.177
24.4484 52.314098 -134.097
24.5574 52.547199 -125.945
24.4848 52.391899 -119.376
24.429199 52.272999 -115.008
24.500299 52.425098 -106.658
24.677799 52.805 -99.909302
24.1856 51.751801 -95.002197
24.243 51.8745 -88.170898
24.5599 52.5527 -83.031998
24.4006 52.2118 -75.714401
24.3001 51.996601 -68.5783
23.9769 51.305099 -64.070999
24.1196 51.610401 -55.733101
24.123301 51.6185 -50.0452
24.362301 52.129902 -42.5
24.1113 51.5928 -37.199699
23.143 55.778099 -172.561
21.859699 52.685101 -165.862
21.5151 51.854599 -160.45799
21.7299 52.372299 -154.269
21.724501 52.359299 -147.11301
21.629299 52.130001 -140.849
21.696199 52.2911 -135.056
21.9256 52.843899 -127.837
21.7255 52.361698 -120.583
21.921499 52.834099 -115.049
21.7075 52.318401 -107.127
21.8634 52.694199 -100.256
21.692801 52.283001 -94.222504
21.664101 52.213902 -90.158897
21.562201 51.968201 -82.325699
21.5952 52.047798 -76.969803
21.6896 52.2752 -69.6334
21.537001 51.907501 -62.950199
21.466 51.736198 -55.154999
21.299299 52.257599 -50.492298
20.9797 51.473598 -44.181499
21.0119 51.552601 -37.332901
19.2327 52.784801 -168.868
19.215401 52.737499 -162.843
19.075001 52.352001 -154.455
19.092199 52.399101 -147.677
19.2523 52.8386 -142.80901
19.2679 52.8815 -136.314
19.084101 52.3769 -128.21001
18.9956 52.134102 -123.611
19.3377 53.073101 -115.506
19.1665 52.6031 -108.661
19.211901 52.727699 -101.885
19.072599 52.345402 -97.922798
18.7631 52.517399 -89.175301
18.5898 52.032299 -83.908501
18.7106 52.370201 -76.455399
18.611401 52.0928 -70.275101
18.5399 51.892399 -64.480301
18.5734 51.986401 -59.091099
18.4552 51.655499 -51.244701
18.5191 51.834301 -44.523201
18.4937 51.7631 -38.859699
16.5278 52.402302 -170.19901
16.65 52.789799 -162.8
16.5853 52.584702 -156.73199
16.497801 52.3074 -149.681
16.615999 52.681999 -144.49699
16.1464 52.3349 -136.32201
16.1763 52.431599 -129.32201
16.1693 52.408901 -124.685
16.236601 52.627201 -116.625
16.245899 52.657299 -110.516
16.213301 52.551498 -104.529
16.2885 52.795399 -99.034103
16.1616 52.383999 -92.671204
16.2153 52.558102 -84.106499
16.0909 52.1548 -77.8256
16.2239 52.5858 -71.1604
16.2808 52.770401 -66.881699
15.5229 50.3139 -59.712002
16.076099 52.106899 -52.0186
16.3064 52.853401 -46.666901
16.0364 51.9781 -39.394501
13.7136 52.528 -167.30901
13.7301 52.591202 -162.908
13.708 52.506699 -156.177
13.7227 52.562698 -148.129
13.7459 52.6516 -140.851
13.7654 52.726398 -136.157
13.6994 52.4734 -128.185
13.6711 52.365299 -122.544
13.6941 52.453098 -115.292
13.8147 52.915199 -107.943
13.7448 52.6474 -102.861
13.7403 52.630199 -95.772202
13.7121 52.522202 -90.387299
13.641 52.249802 -84.6017
13.6018 52.0998 -77.110901
13.3436 51.110901 -70.070602
13.1229 50.2654 -62.787601
13.8319 52.9813 -58.3578
13.5514 51.9067 -50.728298
13.5876 52.045399 -44.483601
13.3874 51.2784 -36.572102
11.2592 52.441799 -170.082
11.3502 52.865601 -165.16
11.2801 52.5392 -158.666
11.2895 52.583199 -152.239
11.2931 52.600101 -143.39799
11.2874 52.573299 -138.19299
11.369 52.953499 -131.737
11.241 52.357201 -124.319
11.3573 52.898701 -117.009
11.2478 52.389 -110.219
11.2322 52.316002 -104.807
11.2381 52.343899 -99.998497
11.3434 52.834202 -90.789803
11.2305 52.308498 -84.900299
11.1904 52.1217 -78.8993
10.8654 50.6077 -71.6353
11.0695 51.5583 -66.654099
10.9437 50.972698 -59.977901
11.1293 51.8372 -52.081902
11.4844 53.490898 -47.610001
11.6844 54.422699 -41.369999
8.7851295 51.9245 -170.30701
8.86901 52.4203 -162.11501
8.8095999 52.069199 -155.213
8.8540001 52.3316 -148.24001
8.8532495 52.327099 -141.976
8.81985 52.1297 -135.362
8.9130297 52.6805 -129.901
8.9403296 52.841801 -122.294
8.8868504 52.5257 -116.073
8.9004498 52.606098 -110.536
8.8828201 52.5019 -104.62
8.7947903 51.981602 -98.225403
8.8496304 52.305801 -91.504799
8.8833704 52.505199 -84.499802
8.8161898 52.108101 -76.9879
8.8412504 52.256199 -71.982498
9.0795002 53.664398 -63.2407
8.9015198 52.612499 -56.946602
8.9445496 52.866798 -51.028
8.6756096 51.277199 -44.690201
8.5777397 50.6987 -39.0191
6.52878 52.501701 -170.25
6.4977899 52.252499 -162.117
6.5014501 52.281898 -157.211
6.4710498 52.037399 -150.414
6.48243 52.129002 -141.75101
6.5345302 52.547901 -135.963
6.4693298 52.023602 -129.92101
6.5239301 52.462601 -122.57
6.55582 52.719101 -117.295
6.5566502 52.7258 -110.953
6.5363798 52.562698 -104.033
6.4678702 52.011799 -96.429802
6.45473 51.9062 -91.918098
6.4479899 51.852001 -84.497101
6.4886699 52.1791 -77.7836
6.4495902 51.864899 -71.553802
6.5208101 52.437599 -64.651199
6.2621999 50.357899 -58.3634
6.53929 52.586201 -52.382099
6.2548299 50.298698 -45.257401
6.3267798 50.877201 -40.225498
4.2889099 53.608601 -173.95
4.1704998 52.128502 -165.23199
4.1992898 52.4884 -158.36099
4.2026901 52.530899 -153.26401
4.1862001 52.324699 -146.27901
4.2118001 52.644699 -140.274
4.1493902 51.864601 -132.82201
4.1990099 52.484798 -125.326
4.2003999 52.502201 -120.567
4.2036901 52.543301 -112.089
4.2196698 52.743099 -107.55
4.1752501 52.187901 -101.652
4.1543102 51.926102 -93.7285
4.1878901 52.345901 -88.606796
4.1680899 52.0984 -82.190498
4.1778102 52.219898 -75.472397
4.13904 51.735298 -68.321999
4.14398 51.7971 -62.586899
4.2325902 52.904598 -54.305401
3.8651299 52.445499 -48.705898
3.8331001 52.010899 -41.250099
1.8924 52.617699 -171.36501
1.87947 52.2579 -166.388
1.88407 52.385799 -157.158
1.87087 52.019001 -151.104
1.89908 52.8032 -145.29601
1.88869 52.5145 -138.47099
1.89635 52.727299 -132.62601
1.8904999 52.564602 -124.825
1.89533 52.6991 -118.54
1.8763601 52.171501 -112.025
1.8886499 52.513302 -105.561
1.88706 52.469002 -99.136101
1.5598201 52.5382 -92.214401
1.56547 52.728401 -86.6017
1.5443 52.015499 -80.181297
1.54159 51.924301 -73.451202
1.55151 52.258301 -65.725899
1.55644 52.424301 -59.093102
1.52429 51.341702 -53.755001
1.5261101 51.402699 -47.777199
1.53104 51.569 -39.653099
-0.41889399 52.791 -171.966
-0.416711 52.515999 -165.078
-0.414765 52.270699 -157.70799
-0.41474101 52.2677 -152.30701
-0.41677099 52.523499 -146.479
-0.74761099 52.630299 -139.07201
-0.74216998 52.247299 -132.589
-0.73971802 52.074699 -124.677
-0.73838699 51.980999 -118.607
-0.74473298 52.427799 -111.706
-0.74242502 52.265301 -105.074
-0.73934901 52.048698 -100.459
-0.74640602 52.545502 -91.613098
-0.74213398 52.244701 -85.399696
-0.739012 52.025002 -80.783401
-0.74207199 52.240398 -72.055199
-0.741615 52.208199 -67.029602
-0.74149799 52.200001 -58.9748
-0.74128699 52.1852 -52.9165
-0.740583 52.135601 -48.154499
-0.74000901 52.0952 -39.614601
-3.2130201 55.250198 -171.89
-3.05653 52.559299 -167.992
-3.03298 52.1544 -160.112
-3.0573201 52.573002 -153.064
-3.0438299 52.3409 -147.422
-3.0739701 52.8591 -141.175
-3.04722 52.3992 -132.457
-3.0455301 52.370201 -125.854
-3.0475399 52.404701 -118.663
-3.04614 52.3806 -112.208
-3.0377901 52.237099 -106.076
-3.0623901 52.660099 -99.026703
-3.0669 52.737701 -93.010902
-3.0337701 52.1679 -87.606003
-3.0494001 52.436699 -81.190598
-3.0286901 52.080601 -74.362099
-3.0330801 52.156101 -66.427902
-3.0376101 52.233898 -60.897598
-3.0339401 52.170898 -55.044102
-3.0288601 52.0835 -47.8536
-3.03267 52.148998 -40.548
-3.01192 51.792198 -35.5033
-5.5907602 54.6357 -174.412
-5.3818102 52.5937 -166.681
-5.3722901 52.500702 -161.465
-5.3551698 52.333401 -152.76401
-5.3920202 52.693501 -146.097
-5.3555698 52.337299 -140.612
-5.4053702 52.8241 -133.29401
-5.3963199 52.7356 -126.3
-5.3850002 52.625 -120.343
-5.3621898 52.4021 -114.913
-5.3814001 52.589802 -106.749
-5.4001999 52.773499 -100.318
-5.3812699 52.588501 -94.6129
-5.3723302 52.501099 -89.806396
-5.3452501 52.2365 -82.894302
-5.3131299 51.9226 -73.5597
-5.33954 52.180698 -67.242599
-5.28583 51.6558 -63.189098
-5.3376498 52.162201 -55.966702
-5.24788 51.284901 -49.008202
-5.3425102 52.209702 -42.7127
-5.27425 51.542702 -36.005299
-7.7528 52.775799 -174.267
-7.6747799 52.244701 -165.226
-7.6473098 52.057701 -158.161
-7.76647 52.8689 -153.12801
-7.7227302 52.571098 -147.09801
-7.7537398 52.7822 -138.76401
-7.7650399 52.8591 -133.862
-7.7736602 52.917801 -126.044
-7.75809 52.811798 -120.095
-7.6806998 52.285 -113.892
-7.6928601 52.367802 -107.85
-7.7436199 52.713299 -99.808296
-7.7887301 53.020401 -93.5951
-7.7395601 52.685699 -86.400101
-7.6691599 52.206402 -81.994698
-7.6566601 52.1213 -73.976601
-7.7020798 52.4305 -66.466698
-7.5876398 51.651501 -62.702702
-7.6450901 52.042599 -53.962399
-7.72575 52.591599 -48.055401
-7.7463198 52.731701 -42.199299
-7.59654 51.712101 -36.3727
-10.1146 52.6661 -168.927
-10.0892 52.533699 -162.464
-10.196 53.0895 -156.424
-10.2052 53.137699 -149.811
-10.1234 52.711498 -140.963
-10.185 53.032501 -134.396
-10.1174 52.6805 -127.444
-10.1818 53.015701 -123.667
-10.0634 52.399399 -117.073
-10.1406 52.8013 -109.203
-10.0795 52.482899 -103.508
-10.0773 52.471401 -96.999901
-10.0516 52.337799 -91.200699
-10.0434 52.295399 -84.599899
-10.0645 52.405201 -76.399498
-10.1074 52.628601 -69.7024
-9.9727097 51.927101 -64.050499
-10.0398 52.276402 -58.646702
-9.9484396 51.800701 -49.632099
-9.9981604 52.059601 -44.700401
-10.0174 52.159698 -37.605499
-12.6163 53.015999 -169.358
-12.5718 52.8288 -160.213
-12.5802 52.8643 -153.89
-12.5037 52.542702 -147.772
-12.633 53.086201 -141.847
-12.5777 52.853901 -134.961
-12.4869 52.472198 -127.814
-12.6655 53.222599 -120.875
-12.4759 52.425999 -114.414
-12.5796 52.861698 -110.268
-12.58 52.863499 -101.265
-12.4816 52.4501 -96.4851
-12.4485 52.311001 -89.495102
-12.5597 52.778099 -84.303101
-12.4063 52.133598 -77.4049
-12.3887 52.0597 -71.601196
-12.8669 52.6026 -63.6245
-12.6711 51.801998 -57.3466
-12.7156 51.983799 -52.127201
-12.7162 51.986401 -44.655701
-12.8491 52.5299 -37.934502
-15.062 52.874699 -168.09599
-15.0365 52.7854 -163.00301
-15.1624 53.227402 -156.485
-15.1669 53.243301 -148.259
-15.0518 52.838902 -140.97501
-15.0275 52.7537 -135.093
-14.9809 52.590099 -129.85001
-15.1418 53.154999 -123.935
-14.9951 52.6399 -115.55
-15.3554 52.650002 -110.334
-15.3745 52.715199 -102.837
-15.245 52.2714 -97.566704
-15.4807 53.079601 -90.970703
-15.2599 52.322399 -84.204201
-15.3484 52.6259 -78.428398
-15.1887 52.0783 -72.028603
-15.3769 52.723499 -63.370602
-15.3545 52.646801 -57.262199
-15.3452 52.614799 -51.742599
-15.2022 52.1245 -46.760502
-15.3495 52.629601 -38.0312
-17.632799 52.960999 -167.28
-18.0956 53.235298 -162.097
-17.9321 52.754398 -154.455
-17.942801 52.7859 -147.578
-17.939899 52.777302 -141.259
-18.0825 53.196701 -135.619
-18.0243 53.0256 -128.28
-18.087601 53.2117 -120.73
-18.0294 53.040501 -115.944
-18.010099 52.9837 -108.264
-18.003 52.962898 -103.385
-17.9921 52.930698 -96.127197
-17.957899 52.830101 -91.459801
-17.9454 52.793301 -82.818001
-17.885599 52.6175 -78.144798
-18.044201 53.084099 -70.306297
-17.9867 52.915001 -63.927601
-17.7644 52.260799 -59.190601
-17.724701 52.1441 -51.566601
-17.821699 52.4296 -46.070202
-17.8894 52.628601 -39.948299
-21.834999 56.038101 -173.661
-20.9748 53.830399 -167.983
-20.879 53.5844 -160.89799
-20.716999 53.168701 -153.483
-20.7537 53.263 -146.92999
-20.923 53.697498 -140.364
-20.761 53.2817 -133.668
-20.8283 53.454399 -127.017
-20.832199 53.464401 -119.917
-20.7616 53.283298 -114.851
-20.759001 53.276501 -107.691
-20.8106 53.408901 -100.74
-20.7474 53.2467 -95.7939
-20.523199 52.671398 -90.059799
-20.6096 52.893101 -82.032898
-20.644199 52.981899 -76.486397
-20.8262 53.448898 -69.270599
-20.5439 52.7244 -64.8638
-20.4312 52.435398 -58.171299
-20.631201 52.948502 -51.629601
-20.6521 53.002102 -43.827099
-20.6332 52.953602 -38.0909
-23.7617 53.868401 -170.533
-23.4034 53.056 -163.17101
-23.6187 53.544102 -157.095
-23.5338 53.351799 -150.59801
-23.5252 53.332298 -142.991
-23.6684 53.656799 -138.69901
-23.615299 53.536598 -130.285
-23.591801 53.483299 -125.495
-23.7528 53.848301 -119.579
-23.7033 53.735901 -112.149
-23.560699 53.412701 -106.826
-23.6021 53.5065 -98.4207
-23.441099 53.141499 -93.1996
-23.308399 52.840599 -86.981796
-23.519899 53.320301 -81.060799
-23.4876 53.246899 -73.556999
-23.4088 53.068401 -66.429497
-23.4373 53.133099 -61.084099
-23.561899 53.415501 -53.862499
-23.3011 52.8242 -47.5243
-23.3375 52.9067 -42.233101
-26.8368 54.259602 -169.936
-26.5895 53.759602 -164.08
-26.8015 54.188202 -157.834
-26.670401 53.923199 -150.97501
-26.597099 53.775101 -144.131
-26.697399 53.977798 -137.36501
-26.7005 53.984001 -129.87399
-26.5336 53.6465 -124.446
-26.4813 53.540798 -118.208
-26.571501 53.723202 -111.468
-26.6381 53.8578 -106.036
-26.4984 53.575401 -99.456703
-26.6238 53.828899 -91.6847
-26.4895 53.557499 -85.991203
-26.392799 53.362 -80.682899
-26.604099 53.7892 -71.847504
-26.234699 53.042301 -67.9711
-26.636299 53.854301 -61.0224
-26.1726 52.916698 -55.010502
-26.441799 53.460899 -48.518902
-26.317301 53.209301 -42.017601
-26.202999 52.9781 -36.183701
-31.962 58.0634 -173.48801
-30.0399 54.571499 -166.44099
-29.808201 54.1507 -159.494
-29.8846 54.289398 -153.879
-30.1751 54.8172 -147.41901
-30.001301 54.5014 -140.569
-29.8808 54.2826 -135.42101
-30.060699 54.609402 -126.448
-30.019199 54.534 -120.932
-29.8598 54.2444 -114.468
-29.919701 54.3531 -109.354
-29.872601 54.267601 -103.384
-29.867399 54.258099 -97.026299
-29.796 54.128399 -90.677803
-29.7796 54.098598 -83.936798
-29.5961 53.765301 -76.109001
-29.823999 54.179298 -69.764801
-29.8538 54.233398 -63.794102
-29.510799 53.610401 -59.426498
-29.387899 53.3871 -53.296902
-29.7159 53.982899 -46.449001
-29.408899 52.641399 -40.537498
-33.365101 54.777199 -168.88499
-33.497601 54.9949 -163.218
-33.386002 54.811699 -154.765
-33.140598 54.408699 -149.52699
-33.688499 55.3083 -143.85201
-33.466499 54.943802 -137.862
-33.348 54.749199 -130.677
-33.148701 54.422001 -123.044
-33.4706 54.9505 -116.421
-33.176498 54.467602 -112.558
-33.175999 54.466801 -104.851
-33.1679 54.453602 -99.107498
-33.080299 54.309799 -93.568604
-33.372299 54.0238 -85.111099
-33.3964 54.062901 -79.764297
-33.504799 54.2384 -72.0868
-33.508499 54.2444 -66.440498
-33.262402 53.845901 -61.729301
-33.435101 54.125599 -54.222801
-32.876801 53.221802 -49.507401
-33.3843 54.043201 -43.012402
-33.317001 53.934299 -36.175598
-37.096001 55.287701 -169.43201
-36.960701 55.085999 -163.905
-37.129398 55.337399 -156.89
-36.885899 54.974602 -149.278
-36.896801 54.9907 -141.929
-37.165798 54.647999 -136.02699
-37.103802 54.5569 -131.519
-36.9538 54.336399 -122.835
-37.236198 54.751598 -117.717
-36.962399 54.3489 -111.827
-37.0275 54.444698 -105.998
-36.8545 54.1903 -99.7174
-37.004799 54.411301 -91.585899
-36.839802 54.168701 -88.013496
-36.858898 54.196701 -79.989799
-36.821499 54.1418 -72.829399
-36.950802 54.331902 -67.513496
-36.9035 54.262299 -60.622398
-36.701599 53.9655 -55.536598
-36.819801 54.139301 -48.042198
-36.4016 53.524399 -43.451
-36.3899 53.507198 -37.640301
-39.404202 52.7999 -166.44099
-39.373501 52.758701 -161.589
-39.459 52.873199 -153.51401
-39.390701 52.7817 -147.347
-38.938599 52.1759 -139.62801
-39.009602 52.271099 -135.26199
-38.9776 52.228298 -127.006
-38.862801 52.074402 -120.564
-38.577 51.691399 -115.333
-38.5849 51.702 -108.8
-38.491199 51.576401 -101.416
-38.377602 51.424198 -96.371696
-37.998199 50.915901 -90.263702
-38.130699 51.093498 -83.945602
-38.168701 51.144299 -78.6026
-38.005798 50.925999 -71.008003
-38.234798 51.232899 -63.526699
-38.212399 51.202801 -56.984901
-37.640202 50.4361 -53.475601
-37.5341 50.2939 -45.290501
-37.570499 50.342701 -40.555401
-39.4832 48.328201 -168.05701
-39.477402 48.321098 -163.45
-39.513401 48.3652 -157.63499
-39.617401 48.4925 -149.119
-39.3615 48.179199 -143.769
-39.376999 48.198101 -135.58099
-38.888802 47.6007 -129.72099
-39.1506 47.921101 -124.622
-38.8167 47.512402 -116.68
-39.024101 47.7663 -111.342
-38.746799 47.426899 -104.302
-38.749699 47.430401 -98.8116
-38.655998 47.315601 -93.9188
-38.4394 47.050598 -87.655296
-38.458199 47.073601 -80.405701
-38.377602 46.974998 -74.815399
-38.572899 47.213902 -67.174797
-38.528702 47.159901 -60.093899
-38.4538 47.068199 -55.157799
-38.297501 46.8769 -47.222801
-38.140701 46.684898 -42.725899
-38.160599 46.709202 -36.549099
-40.0186 44.817299 -169.11
-39.976601 44.770199 -161.91299
-40.147499 44.9617 -156.951
-39.787899 44.558899 -148.619
-40.022301 44.8214 -144.72
-39.648701 44.403099 -136.061
-39.178902 43.8769 -130.74699
-39.792702 44.564301 -123.464
-39.514 44.252201 -116.46
-39.213402 43.915501 -110.653
-39.184601 43.883301 -106.009
-38.993301 43.669102 -100.097
-38.6838 43.322399 -93.100899
-38.7976 43.449799 -86.190598
-38.493301 43.109001 -79.869301
-38.764 43.4123 -73.458397
-38.604801 43.233898 -67.219299
-38.932598 43.601002 -59.2272
-38.656502 43.291901 -54.9263
-38.739498 43.3848 -45.872501
-38.567799 43.192501 -39.536098
-38.2472 42.8335 -35.551201
-40.619801 41.6581 -171.94701
-40.1315 41.157398 -165.55701
-40.274101 41.3036 -156.74699
-39.925098 40.945702 -151.414
-39.759602 40.776001 -144.118
-39.915901 40.936199 -139.017
-40.088001 41.112801 -131.62601
-39.672501 40.6866 -126.678
-39.757198 40.773499 -117.961
-39.5793 40.591099 -111.701
-39.313999 40.319 -105.754
-39.082901 40.081902 -98.510002
-39.3395 40.3451 -94.030197
-39.095501 40.094898 -86.095596
-39.294201 40.298698 -80.441101
-39.394501 40.4016 -74.0942
-39.052601 40.0509 -67.614799
-39.1213 40.121399 -61.544998
-39.162701 40.163799 -54.162498
-38.644199 39.632099 -48.681599
-38.925499 39.920502 -42.691101
-38.237598 39.215099 -36.504501
-42.4254 39.8522 -172.04601
-40.507 38.050201 -166.187
-40.533901 38.075298 -159.118
-40.261902 37.819801 -151.871
-40.525101 38.067101 -145.15199
-40.379501 37.930302 -138.974
-40.319401 37.873901 -132.90401
-40.1646 37.7285 -124.758
-40.0219 37.594398 -120.353
-39.7561 37.344799 -113.159
-39.661201 37.2556 -107.56
-39.553101 37.154099 -99.4701
-39.5952 37.1936 -92.880501
-39.361301 36.9739 -87.097
-39.381599 36.993 -80.709198
-39.2966 36.913101 -74.5149
-38.945801 36.126701 -68.980499
-40.030201 37.132599 -60.5495
-39.3009 36.4561 -53.948002
-39.365501 36.515999 -50.228802
-39.0835 36.254398 -42.0993
-41.461899 35.655701 -172.362
-40.675301 34.979198 -165.56599
-40.6026 34.916599 -159.015
-40.590599 34.906399 -152.284
-40.548901 34.870399 -144.576
-40.426998 34.765598 -138.564
-40.509701 34.8368 -131.931
-40.169102 34.5439 -123.671
-40.373199 34.281399 -118.318
-40.058102 34.013901 -113.31
-40.1157 34.062801 -106.964
-40.198002 34.132702 -98.625999
-39.675701 33.689201 -91.521103
-40.401901 34.305901 -86.700996
-39.686401 33.698299 -78.676201
-39.637798 33.657001 -71.945702
-40.229099 34.1591 -65.852898
-39.2981 33.3685 -61.148899
-39.075901 33.179901 -54.961498
-39.7925 33.7883 -47.552601
-40.1049 34.053699 -41.610401
-40.9678 31.8016 -170.174
-40.970402 31.8036 -163.22501
-41.2528 32.0228 -154.80499
-40.549801 31.4771 -148.435
-40.447102 31.397301 -142.98399
-40.927799 31.7705 -136.836
-40.317799 31.297001 -128.86301
-40.4589 31.4065 -123.651
-40.4548 31.4034 -115.435
-40.164902 31.178301 -110.505
-39.997002 31.048 -102.333
-40.2351 31.2328 -97.178902
-39.909901 30.9804 -89.631302
-39.695099 30.813601 -84.592499
-39.5578 30.7071 -77.932899
-39.530998 30.686199 -70.762299
-39.751701 30.8575 -64.912697
-39.622799 30.7575 -56.189999
-39.317101 30.520201 -51.8881
-39.091999 30.345501 -44.7178
-38.256001 29.696501 -36.787998
-41.353901 29.287001 -168.32899
-40.884499 28.9545 -160.862
-40.7234 28.8405 -153.259
-40.947899 28.9995 -147.595
-40.8018 28.896 -141.726
-40.844799 28.9265 -135.026
-40.689602 28.8165 -127.365
-40.471199 28.6619 -122.492
-40.629002 28.7736 -113.215
-40.2994 28.540199 -107.154
-40.6623 28.797199 -101.055
-40.065201 28.3743 -93.896797
-40.010399 28.335501 -90.052696
-39.994701 28.3244 -82.970703
-39.919899 28.2714 -74.364998
-39.646599 28.077801 -69.790901
-39.748001 28.1497 -62.587399
-39.0518 27.656601 -56.824001
-39.6264 28.063499 -48.813801
-39.625801 28.063101 -41.844898
-39.4147 27.9137 -37.801399
-41.015701 26.424601 -169.07001
-40.972301 26.396601 -162.93401
-41.377602 26.6577 -156.418
-40.9175 26.3613 -150.662
-42.265999 27.230101 -143.54201
-40.662201 26.1968 -135.664
-40.533501 26.113899 -130.532
-40.5476 26.122999 -123.959
-40.6665 26.1996 -117.502
-40.788601 26.278299 -109.441
-40.5093 26.0984 -103.563
-39.680901 25.564699 -97.805901
-40.3848 26.018101 -90.977997
-39.934299 25.7279 -83.671501
-40.226799 25.9163 -76.7705
-40.217499 25.9104 -69.556198
-39.424702 25.399599 -63.497002
-39.731098 25.597 -58.005199
-40.133499 25.856199 -49.4506
-39.256802 25.291401 -44.9259
-39.242001 25.2819 -38.628399
-41.291901 24.1073 -171.533
-41.4048 24.173201 -165.21899
-40.9893 23.930599 -156.54401
-41.061699 23.9729 -150.022
-41.1777 24.0406 -143.117
-40.944401 23.9044 -137.864
-40.750999 23.7915 -130.347
-40.7775 23.8069 -123.859
-40.590401 23.697701 -116.084
-40.581402 23.692499 -109.029
-40.287998 23.5212 -102.821
-40.554298 23.676701 -98.017601
-40.187099 23.462299 -90.592697
-39.7253 23.192699 -85.5
-40.2631 23.506599 -75.926598
-40.1665 23.450199 -71.539597
-39.774399 23.2213 -65.084297
-39.798599 23.2355 -56.995499
-39.320099 22.9561 -51.605999
-39.567001 23.100201 -43.797199
-38.9949 22.766199 -38.748199
-45.076698 23.729099 -172.827
-41.5602 21.878 -165.429
-40.7397 21.4461 -158.40199
-41.3498 21.7672 -152.578
-41.8783 22.0455 -145.672
-40.665798 21.4072 -140.04601
-40.789398 21.4722 -131.72
-40.762199 21.457899 -127.175
-40.633701 21.390301 -118.125
-39.997898 21.055599 -112.222
-40.985699 21.5756 -106.106
-40.101002 21.1098 -100.938
-40.0914 21.104799 -92.040298
-40.483299 21.3111 -85.602097
-40.538601 21.3402 -78.6623
-40.195499 21.159599 -74.055702
-39.795399 20.948999 -66.666
-39.867901 20.987101 -60.924801
-39.4161 20.7493 -54.301998
-39.730598 20.597799 -46.680599
-39.997501 20.7362 -39.566101
-41.670502 19.651899 -170.647
-41.128399 19.396299 -163.189
-41.169998 19.415899 -157.021
-41.190701 19.4256 -150.159
-40.935001 19.305 -143.806
-41.090801 19.3785 -138.142
-40.751999 19.2188 -129.35899
-40.682999 19.186199 -124.089
-40.793499 19.2383 -117.372
-40.5928 19.1437 -111.217
-41.181702 19.106701 -102.777
-40.5462 18.811899 -97.683701
-39.9575 18.5387 -91.5495
-39.459801 18.3078 -85.5
-39.784801 18.458599 -76.471497
-39.9608 18.5403 -70.420898
-39.787998 18.4601 -64.038399
-40.228802 18.6646 -56.759998
-39.9217 18.5221 -51.778301
-39.204899 18.1896 -44.547699
-39.338902 18.251699 -38.942402
-41.744202 17.491301 -171.58501
-41.281799 16.994101 -164.108
-41.420502 17.051201 -158.539
-41.966801 17.2761 -150.713
-41.741402 17.183399 -144.662
-40.898201 16.836201 -136.745
-41.182999 16.9534 -129.21201
-40.999901 16.878099 -122.706
-41.0481 16.8979 -117.846
-39.998699 16.4659 -109.368
-40.399601 16.631001 -103.678
-40.618401 16.721001 -96.990097
-39.783298 16.3773 -89.612396
-40.687302 16.749399 -85.5
-39.3675 16.2061 -78.088303
-40.2229 16.558201 -71.838203
-39.609501 16.3057 -64.495697
-39.743401 16.3608 -58.309502
-39.578899 16.2931 -51.255199
-40.195 16.5467 -44.574699
-39.532299 16.273899 -37.821499
-41.3717 14.9443 -167.033
-41.069 14.8349 -159.291
-40.706501 14.704 -154.577
-41.155201 14.8661 -147.091
-41.7705 15.0883 -138.077
-40.996799 14.8089 -131.82201
-40.544701 14.6455 -125.425
-40.897301 14.7729 -118.958
-39.5779 14.2963 -114.102
-40.3475 14.5743 -107.636
-41.142101 14.8613 -99.050102
-40.283501 14.5512 -93.318199
-39.976002 14.4401 -87.250099
-40.734901 14.7142 -78.719398
-40.209202 14.5243 -71.708199
-39.911301 14.4167 -67.364304
-40.0285 14.4591 -60.761299
-39.5919 14.3014 -53.5797
-40.118301 14.4915 -45.111
-39.830002 14.3874 -39.0257
-44.147499 13.7896 -172.539
-41.945099 13.1016 -166.828
-41.856998 13.0741 -158.935
-40.951599 12.7913 -151.039
-41.436501 12.9428 -146.515
-42.6973 13.3366 -138.554
-41.097301 12.8368 -131.57401
-40.570801 12.6724 -124.448
-40.673401 12.7044 -117.584
-40.412102 12.6228 -110.667
-39.678699 12.3937 -106.264
-40.512001 12.654 -97.550697
-40.618599 12.6873 -91.882401
-40.569 12.6718 -86.735397
-40.177898 12.5496 -77.150902
-39.611698 12.3728 -71.765701
-40.366798 12.6087 -65.291901
-39.661499 12.3883 -57.272598
-40.698601 12.7123 -53.107201
-39.167 12.2339 -46.191399
-39.7244 12.408 -38.830898
-42.051601 11.1356 -172.854
-41.625099 11.0226 -165.084
-41.666199 11.0335 -157.69501
-41.542702 11.0008 -151.45
-40.925098 10.8373 -142.89
-40.346298 10.684 -136.979
-41.348701 10.9494 -129.209
-40.897499 10.83 -122.492
-39.497501 10.4592 -117.629
-40.125801 10.6256 -109.478
-39.144798 10.3658 -104.87
-41.044399 10.8688 -98.065598
-39.913799 10.5695 -90.974098
-40.123798 10.6251 -83.229202
-39.698799 10.5125 -78.368797
-39.9086 10.5681 -70.827103
-38.8517 10.2882 -62.581799
-39.722401 10.5188 -56.7187
-39.440701 10.4442 -51.177799
-39.816601 10.5437 -42.444599
-39.472 10.4525 -37.0536
-41.552898 9.0733099 -169.72301
-41.130199 8.9809904 -162.922
-41.016201 8.95611 -157.162
-40.503799 8.8442202 -150.01401
-40.983002 8.9488697 -142
-42.674 9.3181 -134.522
-40.4398 8.8302498 -130.311
-40.471298 8.8371296 -123.725
-40.597698 8.8647203 -116.946
-40.240898 8.7868099 -108.358
-40.487499 8.8406601 -103.787
-40.175301 8.7724895 -95.111099
-40.571301 8.8589602 -90.041603
-40.0648 8.7483702 -82.9161
-39.669701 8.6620903 -76.600502
-39.6297 8.6533604 -70.0737
-40.2108 8.7802401 -63.158501
-39.673901 8.4027901 -57.1982
-39.464401 8.3584204 -50.718498
-39.7976 8.4289799 -42.4916
-39.874199 8.4452105 -35.6772
-41.7159 7.2079201 -169.983
-41.275002 7.1317501 -164.36301
-41.5158 7.1733499 -156.60001
-41.685699 7.2027001 -150.506
-40.978298 7.0804801 -144.589
-42.754101 7.38731 -136.127
-40.878799 7.0632801 -128.94
-40.7118 6.7718601 -124.68
-41.253799 6.86201 -117.132
-40.554001 6.7456102 -111.06
-40.392101 6.7186699 -103.914
-40.631401 6.7584801 -97.487297
-40.236801 6.6928401 -90.9813
-40.202702 6.68718 -83.534897
-40.0741 6.6657801 -75.772797
-39.550598 6.5787101 -69.328102
-38.901501 6.4707298 -62.6404
-39.766102 6.6145501 -57.076099
-39.783798 6.6174998 -50.822102
-39.7024 6.60395 -44.119999
-39.637299 6.5931301 -36.233398
-41.471802 5.0403199 -169.783
-41.381699 5.0293698 -162.147
-41.0723 4.9917598 -156.636
-41.3825 5.02947 -149.869
-40.8465 4.9643202 -143.388
-43.2813 5.2602401 -133.90601
-40.597401 4.9340501 -130.37
-40.516201 4.92418 -122.638
-40.559502 4.92945 -114.507
-40.957901 4.97786 -109.494
-40.375401 4.9070702 -103.409
-39.8344 4.84132 -95.343597
-40.233799 4.8898602 -90.260498
-40.226601 4.8889799 -81.360397
-39.8116 4.8385401 -76.588699
-39.6078 4.8137798 -68.073502
-39.2439 4.7695398 -61.083801
-39.3461 4.78196 -56.086498
-40.072899 4.8702998 -47.795898
-40.418301 4.9122801 -42.181198
-41.0224 3.1673901 -166.89301
-40.419102 3.12081 -161.517
-40.6287 3.1370001 -153.226
-40.3629 3.1164701 -147.202
-41.855099 3.2316899 -138.73199
-40.998901 3.16558 -132.23
-40.962502 3.16277 -127.626
-38.7691 2.9934101 -120.834
-40.885201 3.1568 -113.144
-39.6647 3.0625601 -105.634
-40.426498 3.1213901 -100.512
-39.983101 3.0871501 -94.307701
-40.131699 3.0986199 -86.431999
-40.1591 3.1007299 -80.839897
-40.112099 3.09711 -72.238197
-40.1092 3.09689 -66.427696
-40.2155 3.1050899 -60.303501
-39.9664 3.08586 -53.6185
-39.566002 3.05494 -47.0994
-39.9967 3.0881901 -38.7509
-41.799999 1.38718 -169.989
-40.799198 1.3539701 -164.153
-41.0168 1.36119 -157.55499
-41.774502 1.38633 -151.97501
-41.786999 1.38675 -142.759
-42.322102 1.40451 -137.73599
-40.056198 1.3293101 -129.836
-40.556702 1.34592 -125.274
-40.509701 1.34436 -116.719
-40.993801 1.36042 -109.613
-40.376499 1.33994 -102.904
-39.128799 1.29853 -96.2005
-40.004101 1.32758 -89.955902
-39.978199 1.32672 -85.085503
-40.080002 1.3301001 -76.692299
-39.813599 1.32126 -69.524803
-39.777401 1.32006 -65.054604
-39.278099 1.30349 -57.209099
-39.8106 1.32116 -50.7766
-38.905201 1.29111 -44.711899
-39.153 1.29934 -38.213299
-41.669102 -0.446316 -170.457
-41.298801 -0.44235 -162.76199
-40.857498 -0.43762201 -155.235
-40.980499 -0.438941 -150.201
-40.663799 -0.43554801 -141.875
-43.000599 -0.46057799 -135.133
-40.276199 -0.43139601 -129.39301
-40.194698 -0.43052399 -121.444
-40.546799 -0.43429399 -116.926
-39.977001 -0.42819199 -109.055
-39.191799 -0.419781 -103.896
-40.184601 -0.430415 -97.415398
-40.758701 -0.43656501 -88.395897
-40.009602 -0.428541 -82.494797
-39.891899 -0.42728099 -75.027901
-39.592201 -0.42407 -69.3069
-38.630001 -0.413764 -63.5313
-38.934299 -0.417023 -55.405102
-39.776402 -0.426043 -48.679501
-39.575901 -0.67205399 -41.105598
-39.279499 -0.66702002 -35.377899
-41.425201 -2.26386 -169.631
-41.234001 -2.2534101 -161.47301
-40.9123 -2.2358301 -154.466
-41.1619 -2.24947 -147.082
-39.263901 -2.14574 -141.332
-40.851299 -2.2325001 -134.567
-40.413601 -2.20857 -126.646
-39.515099 -2.1594701 -120.142
-40.0425 -2.1882999 -114.461
-40.610699 -2.2193501 -108.078
-39.706299 -2.16992 -99.712502
-39.755798 -2.4226999 -93.276703
-39.926399 -2.4331 -86.121803
-40.470798 -2.46627 -79.601196
-39.074902 -2.3812001 -74.903397
-40.424301 -2.4634399 -66.026299
-39.177502 -2.38746 -61.587002
-39.693901 -2.4189301 -54.427101
-39.435902 -2.4031999 -46.3479
-39.520401 -2.40836 -41.001801
-41.1269 -4.0633001 -168.908
-41.1754 -4.06809 -160.59801
-40.889301 -4.0398302 -153.698
-40.743401 -4.2835002 -148.60899
-38.524502 -4.05021 -140.78101
-40.595501 -4.2679501 -133.843
-40.669102 -4.2756801 -125.868
-39.0536 -4.1058502 -119.542
-40.138199 -4.2198701 -114.545
-40.1287 -4.2188702 -106.85
-40.5895 -4.2673202 -100.916
-40.0924 -4.2150602 -92.438202
-40.032101 -4.2087202 -86.949799
-39.558102 -4.1588802 -81.0411
-39.748299 -4.1788802 -72.643997
-40.287899 -4.23561 -65.819298
-40.120899 -4.21805 -60.200001
-39.575001 -4.1606598 -54.116001
-39.034599 -4.1038399 -46.426102
-39.585999 -4.1618099 -39.238701
-41.166302 -6.1641302 -170.25
-40.891602 -6.1230102 -165.446
-40.461201 -6.0585599 -158.222
-41.8895 -6.27244 -149.33099
-41.3078 -6.1853299 -144.138
-41.901798 -6.27426 -136.054
-40.5676 -6.0744901 -131.40401
-40.088902 -6.00282 -124.86
-39.9506 -5.9821 -118.085
-39.317402 -5.88729 -109.485
-39.805901 -5.9604301 -104.987
-40.216202 -6.0218801 -96.675598
-40.071602 -6.0002098 -89.2257
-39.559898 -5.9236002 -84.670998
-39.669701 -5.9400401 -76.277901
-39.391998 -5.8984599 -69.628502
-39.476398 -5.9110999 -62.9813
-39.7155 -5.9468999 -55.814301
-39.9328 -5.9794402 -50.304401
-39.157101 -5.8632798 -43.208698
-39.846001 -5.9664502 -35.4049
-40.953999 -7.9832301 -168.388
-40.210701 -7.8383598 -159.82001
-39.477501 -7.6954198 -153.106
-40.302399 -7.8562198 -147.63901
-39.493 -7.6984401 -140.66901
-40.513302 -7.8973398 -133.47
-40.280602 -7.8519602 -127.212
-39.1623 -7.6339898 -120.949
-40.1982 -7.8359098 -112.421
-41.359901 -8.0623598 -107.473
-39.989498 -7.7952199 -99.054604
-39.5783 -7.7150602 -92.955902
-39.753201 -7.7491598 -86.534897
-39.5453 -7.7086501 -80.011497
-39.954601 -7.7884202 -72.979698
-39.985802 -7.7945099 -66.246002
-38.563999 -7.5173502 -60.964001
-39.285801 -7.6580501 -54.3438
-39.6119 -7.7216201 -47.899399
-39.6306 -7.7252798 -38.677898
-41.618999 -10.0263 -170.95799
-40.6731 -9.7984304 -165.342
-40.834 -9.8371897 -157.265
-40.617401 -9.7849998 -151.871
-40.874901 -9.8470402 -145.89101
-40.307999 -9.7104702 -136.80701
-41.025101 -9.8832197 -130.73801
-40.575802 -9.7749901 -124.319
-39.5233 -9.5214195 -118.167
-40.237598 -9.6934996 -111.456
-39.832901 -9.5960197 -104.431
-40.268398 -9.7009201 -96.860001
-38.912899 -9.3743696 -89.955902
-39.859699 -9.6024599 -85.396599
-39.1978 -9.4430103 -78.251198
-39.419102 -9.4963303 -70.487602
-40.380501 -9.7279396 -65.355003
-39.580399 -9.5351896 -58.457901
-38.948299 -9.3829098 -51.006599
-39.941799 -9.6222401 -43.374401
-39.582298 -9.5356398 -37.984402
-44.372501 -12.7733 -173.30901
-41.118999 -11.8367 -167.401
-41.116501 -11.836 -159.998
-39.964699 -11.5044 -152.224
-39.834499 -11.4669 -145.35001
-39.156101 -11.2717 -140.7
-40.605999 -11.689 -133.241
-40.370701 -11.6213 -126.897
-40.298599 -11.6006 -118.473
-39.582199 -11.3943 -112.197
-40.5933 -11.6854 -104.781
-39.835098 -11.4671 -97.892403
-39.4702 -11.3621 -92.9412
-40.3619 -11.6188 -84.675301
-39.9487 -11.4998 -78.171799
-40.071999 -11.5353 -73.219002
-39.613499 -11.4033 -66.5812
-39.646198 -11.4128 -57.873699
-39.5462 -11.384 -52.875599
-39.629501 -11.6774 -45.907299
-39.2994 -11.5802 -40.009899
-40.9179 -13.7494 -166.78101
-40.771099 -13.7001 -161.129
-39.896999 -13.4064 -155.009
-40.618999 -13.649 -146.18401
-40.308201 -13.5446 -140.757
-40.649601 -13.6593 -132.222
-40.198002 -13.5075 -125.916
-40.493401 -13.6068 -118.819
-40.6054 -13.6444 -114.149
-39.481899 -13.2669 -107.709
-38.7957 -13.3076 -99.665802
-39.785702 -13.6472 -92.303101
-39.731201 -13.6285 -87.1493
-39.527302 -13.5585 -80.136299
-40.158798 -13.7751 -73.037399
-39.760899 -13.6387 -65.381599
-38.638 -13.2535 -60.129799
-39.607498 -13.586 -53.249298
-39.590401 -13.5802 -45.546799
-39.763401 -13.6395 -39.510502
-41.307598 -15.9294 -170.62601
-41.444099 -16.2812 -162.317
-41.025101 -16.1166 -156.12801
-40.576801 -15.9405 -147.645
-41 -16.106701 -142.52499
-40.73 -16.0007 -135.13699
-40.814602 -16.033899 -129.812
-40.322701 -15.8406 -122.599
-40.284199 -15.8255 -116.596
-40.9935 -16.1042 -109.936
-40.344002 -15.849 -101.636
-40.180302 -15.7847 -96.807503
-39.802299 -15.6362 -88.689201
-40.037498 -15.7286 -82.004501
-39.209801 -15.4034 -75.708199
-39.895699 -15.6729 -68.930801
-39.5756 -15.5471 -61.378899
-39.450401 -15.498 -56.195499
-39.4356 -15.4922 -50.489101
-39.5476 -15.5362 -42.070999
-39.601898 -15.5575 -35.493301
-45.617901 -20.2738 -172.855
-41.0299 -18.2348 -167.692
-41.002998 -18.222799 -160.224
-40.627899 -18.056101 -152.66901
-40.044998 -17.7971 -145.922
-40.906399 -18.179899 -140.534
-40.9035 -18.1786 -133.132
-40.640099 -18.061501 -126.42
-40.563999 -18.0277 -120.634
-40.034698 -17.7925 -113.765
-41.646801 -18.5089 -106.249
-40.259499 -17.892401 -100.682
-39.594601 -17.596901 -93.2052
-40.208 -17.869499 -85.602501
-39.348301 -17.4874 -78.817596
-40.371101 -17.941999 -73.915001
-39.5284 -17.567499 -65.9617
-39.176399 -17.410999 -59.851898
-39.769699 -17.6747 -51.631001
-40.105 -17.8237 -45.3466
-39.5373 -17.5714 -39.764198
-41.205502 -20.5228 -168.192
-40.935001 -20.388 -161.965
-41.468201 -20.653601 -155.916
-40.3414 -20.0924 -148.873
-40.674999 -20.2586 -141.687
-41.091999 -20.4662 -136.10001
-40.375 -20.1091 -127.593
-40.738602 -20.290199 -121.868
-40.005699 -19.9252 -115.449
-40.5466 -20.194599 -109.957
-40.4347 -20.138901 -103.299
-40.431499 -20.1373 -96.747498
-39.851898 -19.8486 -89.493599
-40.062199 -19.9533 -83.350998
-40.379299 -20.1113 -76.3993
-39.913399 -19.8792 -69.519501
-40.187099 -20.015499 -63.481602
-39.559601 -19.702999 -55.511002
-39.919701 -19.882401 -48.2159
-40.256699 -20.0502 -42.356701
-39.650799 -19.7484 -35.620701
-41.429199 -22.9555 -167.259
-41.108799 -22.778 -161.918
-41.100399 -22.773399 -154.00301
-40.424099 -22.3986 -148.155
-41.314499 -22.892 -141.834
-41.2994 -22.8836 -132.614
-41.076302 -22.76 -128.41499
-41.222599 -22.841 -120.378
-41.182701 -22.818899 -113.929
-41.0811 -22.762699 -108.622
-39.832901 -22.070999 -100.213
-41.421398 -22.9512 -94.342903
-41.121899 -22.7852 -88.551598
-42.222698 -23.395201 -81.546303
-40.790298 -22.6015 -75.519302
-40.329102 -22.346001 -69.1754
-40.500198 -22.4408 -61.0065
-40.154701 -22.2493 -56.058201
-40.875999 -22.649 -46.988201
-39.866299 -22.0895 -41.494701
-40.011501 -22.17 -36.124298
-43.090302 -26.4107 -171.11501
-41.882702 -25.670601 -164.755
-41.7925 -25.615299 -159.293
-41.365501 -25.3536 -151.211
-41.023602 -25.1441 -145.85699
-41.591 -25.4918 -140.358
-41.725101 -25.573999 -132.29401
-41.445099 -25.402399 -125.149
-41.320301 -25.325899 -118.516
-41.597099 -25.495501 -113.289
-41.618599 -25.508699 -105.968
-41.392399 -25.3701 -100.399
-42.0355 -25.764299 -91.768303
-41.566101 -25.4765 -86.8162
-40.959 -25.104401 -80.022003
-40.66 -24.9212 -73.616699
-40.864101 -25.046301 -67.628098
-40.8167 -25.0173 -59.988201
-40.632801 -25.2563 -53.8606
-40.4118 -25.1189 -48.512402
-40.845901 -25.3887 -39.423698
-42.1017 -28.418501 -169.996
-42.542198 -28.715799 -161.87
-42.0662 -28.3946 -156.439
-42.092899 -28.4126 -149.66901
-41.6077 -28.0851 -143.037
-41.837002 -28.239799 -136.30299
-41.647598 -28.112 -128.548
-42.2598 -28.5252 -121.337
-42.3242 -28.568701 -116.663
-41.8932 -28.661699 -109.196
-41.770401 -28.5777 -101.83
-41.607498 -28.4662 -96.489304
-41.492699 -28.387699 -89.734901
-42.5093 -29.0832 -83.389702
-40.557098 -27.747601 -75.2827
-41.947899 -28.6991 -69.986702
-41.681999 -28.5172 -61.889
-41.283001 -28.2442 -58.005798
-41.384399 -28.313601 -50.5993
-41.141399 -28.1474 -43.7356
-41.251598 -28.2227 -38.427799
-42.118999 -31.2047 -170.36301
-42.6833 -31.6227 -164.319
-42.048901 -31.562901 -157.96001
-42.474201 -31.8822 -151.328
-42.568199 -31.9527 -142.976
-42.338402 -31.7803 -135.86301
-42.4217 -31.8428 -130.86099
-42.083401 -31.5889 -125.025
-42.040901 -31.556999 -116.637
-42.293301 -31.746401 -110.97
-42.1577 -31.6446 -103.945
-42.134499 -31.627199 -97.123596
-42.232101 -31.700399 -91.909401
-41.989899 -31.5186 -83.996696
-41.649101 -31.2628 -77.973801
-41.569801 -31.2033 -72.547897
-41.9701 -31.503799 -66.741501
-41.5639 -31.1989 -58.7561
-41.0312 -30.799 -54.458801
-41.729301 -31.323 -45.419899
-41.331402 -31.024401 -40.989498
-42.536499 -34.948898 -169.545
-42.612598 -35.011299 -163.05099
-42.963902 -35.299999 -155.19701
-42.558399 -34.966801 -148.10201
-42.676399 -35.063801 -141.23599
-42.891399 -35.240501 -136.21899
-42.760899 -35.133202 -129.063
-42.9617 -35.298199 -122.293
-43.0354 -35.358799 -115.071
-42.621101 -35.018299 -111.312
-43.199299 -35.493401 -102.789
-42.284401 -34.741699 -98.3554
-41.759899 -34.310799 -91.388603
-42.302799 -34.756802 -85.699203
-42.397499 -34.834599 -76.038399
-41.982498 -34.493599 -69.834503
-42.3451 -34.791599 -65.362099
-42.716599 -35.096802 -57.997002
-42.339699 -34.787102 -51.842201
-42.185299 -34.660198 -46.288502
-42.181999 -34.6576 -39.824299
-43.6814 -39.222801 -168.70399
-43.792099 -39.322201 -161.235
-44.2015 -39.6898 -156.409
-43.661701 -39.205101 -149.82001
-43.6492 -39.193901 -143.741
-43.680901 -39.222401 -137.382
-43.553398 -39.1078 -128.382
-43.830101 -39.3563 -122.656
-43.407299 -38.9767 -116.644
-43.404999 -38.974701 -110.096
-43.294102 -38.875099 -103.275
-43.673901 -39.216099 -97.426498
-42.996601 -38.607899 -90.636803
-42.969799 -38.5839 -84.907303
-43.0144 -38.623901 -78.8815
-43.141399 -38.737999 -72.561501
-42.813 -38.4431 -65.711197
-43.049 -38.6549 -60.573399
-43.167301 -38.761101 -52.337898
-43.351501 -38.926601 -47.280499
-43.3713 -38.944401 -40.486698
-45.531101 -44.643398 -169.48399
-45.097401 -44.218201 -161.04401
-44.464802 -43.5979 -154.12399
-44.523499 -43.655399 -149.065
-44.685001 -43.813801 -141.311
-44.558899 -43.690102 -134.961
-44.7071 -43.835499 -128.78799
-44.641998 -43.771702 -123.565
-44.691101 -43.819801 -116.475
-44.398102 -43.532501 -111.306
-44.217999 -43.3559 -102.993
-44.257301 -43.394402 -98.393303
-43.963799 -43.106602 -92.636398
-44.2701 -43.407001 -85.7929
-43.774799 -42.921299 -79.141098
-44.118698 -43.258499 -71.132301
-43.889301 -43.0336 -67.200203
-44.271301 -43.408199 -58.699799
-43.5881 -42.7383 -54.983101
-44.037899 -43.179401 -45.9603
-43.799301 -42.945301 -40.270302
-44.3904 -47.520401 -169.39101
-44.457199 -47.591801 -163.05701
-45.0103 -48.183998 -155.92799
-44.627998 -47.7747 -150.326
-44.5075 -47.645699 -144.97301
-44.987801 -48.159801 -138.22301
-44.522701 -47.6619 -131.519
-44.711899 -47.864498 -125.499
-44.6693 -47.818901 -120.129
-44.422001 -47.554199 -113.141
-44.3283 -47.453899 -107.605
-44.392601 -47.522598 -99.640701
-44.4473 -47.5812 -94.405701
-44.372299 -47.500999 -86.661697
-44.395401 -47.5257 -80.466003
-44.635399 -47.7826 -75.633499
-44.096001 -47.2052 -69.788597
-44.195801 -47.312 -62.507099
-44.0382 -47.7397 -56.290001
-43.8307 -47.514801 -51.2831
-43.804699 -47.486599 -44.516899
-44.1409 -47.851101 -38.4813
-43.328999 -50.668701 -172.98199
-41.983101 -49.0947 -166.429
-42.095299 -49.226002 -161.411
-42.017601 -49.135201 -154.573
-41.965199 -49.073799 -148.672
-42.026001 -49.144901 -141.67999
-42.184502 -49.330299 -134.813
-42.198002 -49.3461 -129.196
-41.840099 -48.927502 -122.093
-41.861 -48.9519 -117.196
-41.544102 -49.202599 -110.756
-41.6036 -49.272999 -104.132
-41.415901 -49.0508 -97.342102
-41.315601 -48.931999 -90.936501
-41.611801 -49.282799 -86.178596
-41.5075 -49.159199 -77.545403
-41.435398 -49.073799 -72.784698
-41.6689 -49.350399 -65.026604
-41.383301 -49.0121 -60.2262
-41.0546 -48.622898 -54.0285
-41.310299 -48.925598 -47.3992
-41.263 -48.869598 -41.488098
-41.252899 -48.857601 -35.855598
-40.662899 -52.007198 -172.42599
-38.6562 -49.440701 -167.36
-38.091301 -49.352699 -159.588
-38.096298 -49.3592 -153.2
-38.180901 -49.4688 -146.93201
-38.543201 -49.938202 -139.638
-38.804199 -50.276299 -133.81799
-38.364498 -49.7066 -128.174
-38.410702 -49.766499 -122.052
-38.318802 -49.6474 -114.992
-38.514301 -49.900799 -109.19
-38.318699 -49.647301 -103.736
-38.167702 -49.451698 -97.985298
-38.209301 -49.505501 -90.569504
-38.034599 -49.279202 -85.5
-38.0755 -49.332199 -78.573601
-38.384899 -49.733101 -70.2957
-38.250702 -49.5592 -64.716599
-37.809299 -48.987301 -60.359798
-37.984901 -49.214802 -53.603802
-38.029301 -49.272301 -47.700802
-38.214199 -49.512001 -40.719101
-38.060902 -49.313301 -35.028599
-38.1716 -54.217602 -172.55901
-35.108398 -49.866699 -167.457
-35.433399 -50.3283 -161.895
-34.924999 -49.6063 -155.04201
-35.113201 -49.8736 -147.088
-35.147202 -49.921799 -141.248
-34.942699 -49.631401 -135.397
-35.146599 -49.921001 -128.381
-35.0858 -49.834702 -122.941
-35.032799 -49.759399 -116.724
-34.91 -49.5849 -110.826
-35.235699 -50.047501 -103.617
-34.816799 -49.452599 -98.349197
-35.005001 -49.719898 -91.867699
-34.973301 -49.6749 -84.520302
-35.313301 -50.157799 -77.380501
-34.997101 -49.708801 -70.994301
-34.9035 -49.575802 -64.208504
-35.2882 -50.122101 -58.056801
-34.7658 -49.380199 -53.840599
-35.1819 -49.9711 -46.492699
-34.928902 -49.6119 -41.5793
-32.354099 -50.526901 -173.07201
-32.280102 -50.411301 -164.72301
-31.858601 -49.753101 -159.853
-32.341301 -50.506901 -152.735
-32.067001 -50.078499 -147.04601
-32.330601 -50.4902 -139.008
-31.9902 -49.958698 -132.68401
-32.0583 -50.064899 -125.385
-32.1856 -50.263802 -120.393
-32.3395 -50.504101 -111.959
-32.1231 -50.1661 -105.77
-31.974501 -49.934101 -100.066
-32.145401 -50.201 -94.445396
-32.090801 -50.115799 -88.154404
-32.101501 -50.1325 -80.879501
-31.8883 -49.7995 -75.656502
-32.027599 -50.016998 -68.6716
-32.1758 -50.248501 -63.5597
-32.354599 -50.527699 -55.4874
-31.990601 -49.959202 -49.181801
-32.094299 -50.121101 -42.8339
-31.7719 -49.617699 -37.561901
-29.5385 -50.9188 -171.576
-29.157101 -50.261398 -162.526
-29.1 -50.162899 -156.995
-29.2628 -50.4436 -152.024
-29.1457 -50.241699 -144.847
-29.1814 -50.303299 -137.05901
-29.1621 -50.269901 -131.136
-29.440599 -50.750099 -125.172
-29.343599 -50.582802 -118.222
-29.2994 -50.506699 -110.885
-29.290701 -50.4916 -106.727
-29.333 -50.564602 -97.730499
-29.027201 -50.037399 -93.896301
-29.103901 -50.169601 -85.105103
-29.2614 -50.441101 -78.693398
-29.187 -50.312901 -74.543701
-29.4858 -50.827999 -66.271896
-29.001801 -49.993599 -61.462299
-29.1964 -50.329102 -53.2486
-28.8202 -49.680599 -47.992599
-29.4375 -50.744701 -41.533699
-29.2848 -50.481499 -36.082199
-26.349001 -50.3923 -168.502
-26.2638 -50.2295 -163.036
-26.3806 -50.452702 -156.793
-26.302601 -50.3036 -149.03799
-26.415501 -50.5196 -142.89101
-26.558001 -50.792 -134.658
-26.350201 -50.394699 -129.183
-26.3311 -50.358002 -121.97
-26.379299 -50.450298 -117.763
-26.3557 -50.405201 -110.792
-26.3046 -50.307499 -104.933
-26.290501 -50.280499 -98.681297
-26.434 -50.554798 -91.439301
-26.4135 -50.515598 -83.718102
-26.343 -50.380798 -76.8825
-26.2973 -50.2934 -71.922501
-26.0564 -49.832699 -66.7342
-26.129 -50.743801 -57.534698
-25.920601 -50.3391 -53.9081
-25.871201 -50.243099 -47.195702
-26.0375 -50.566101 -39.707298
-23.8071 -50.8466 -172.015
-23.7932 -50.816898 -165.132
-23.643101 -50.496399 -158.57201
-23.7948 -50.8204 -151.09599
-23.683701 -50.583099 -143.582
-23.751301 -50.727501 -139.69501
-23.7342 -50.691002 -132.11301
-23.766399 -50.759701 -126.464
-23.6978 -50.613201 -120.059
-23.451 -50.914902 -113.244
-23.380899 -50.762699 -107.072
-23.4217 -50.851299 -98.6092
-23.566601 -51.165798 -93.236801
-23.3255 -50.642399 -87.585999
-23.5441 -51.1171 -80.936996
-23.4046 -50.814098 -73.5821
-23.4848 -50.988201 -68.718498
-23.322701 -50.636299 -62.1245
-23.210699 -50.393101 -55.511101
-23.511999 -51.047298 -47.764702
-23.2026 -50.3755 -43.059601
-23.115499 -50.186401 -36.670502
-20.8424 -51.031799 -172.047
-20.7645 -50.841099 -164.35001
-20.803801 -50.937401 -158.72
-20.851801 -51.054901 -151.373
-20.738701 -50.777901 -143.64
-20.627899 -50.506802 -138.38499
-20.7784 -50.875301 -132.041
