# .PCD v0.7 - Point Cloud Data file format
VERSION 0.7
FIELDS x y z
SIZE 4 4 4
TYPE F F F
COUNT 1 1 1
WIDTH 1569
HEIGHT 1
VIEWPOINT 0 0 0 1 0 0 0
POINTS 1569
DATA ascii
-26.58897 285.12520 122.91494 
-24.83597 281.56261 128.89234 
-22.21339 277.47704 135.25096 
-52.32042 340.35084 23.65683 
-50.23077 336.60778 29.79765 
-48.46570 332.85816 36.17491 
-47.54499 330.13162 41.06110 
-46.15756 327.23287 45.97531 
-44.81377 323.96445 51.66781 
-43.04333 320.18747 58.09642 
-41.78028 317.76189 62.13857 
-40.03204 313.25533 70.05909 
-38.39472 310.22711 75.06388 
-37.54195 307.31467 80.37293 
-35.37038 303.69787 86.20202 
-34.50844 301.80720 89.43684 
-33.01805 298.34055 95.42984 
-31.14322 294.11719 102.69034 
-29.87945 291.82704 106.45765 
-28.49782 288.32374 112.59963 
-26.50284 285.36987 117.20824 
-25.49495 281.56377 124.21943 
-24.04535 278.15537 130.12257 
-22.96312 276.13691 133.46493 
-51.29467 338.57156 21.50303 
-49.97009 335.56435 26.68524 
-49.07129 332.43567 32.35043 
-47.35694 329.55457 37.06120 
-47.39369 326.26584 43.57660 
-43.95146 322.18280 49.67437 
-42.73967 319.65443 53.97550 
-41.38894 316.44178 59.54856 
-40.18021 313.30089 65.06097 
-38.64161 309.37601 71.93330 
-37.10531 306.46120 76.81232 
-34.97638 303.52671 81.39182 
-34.34865 300.28827 87.42835 
-32.32273 296.65026 93.45600 
-31.21699 293.31708 99.40681 
-29.70661 289.78750 105.51476 
-27.55492 286.71034 110.36292 
-26.75781 284.06840 115.12501 
-25.43190 279.94226 122.51603 
-23.50487 277.60360 126.03424 
-22.17891 274.52156 131.36356 
-51.36326 337.84075 18.19038 
-50.17545 334.76351 23.57587 
-47.91196 330.48106 30.78864 
-46.63609 327.29826 36.33712 
-45.32884 323.93228 42.22425 
-43.97848 321.34087 46.59782 
-42.20157 317.64602 52.90227 
-40.88194 314.47539 58.40688 
-39.05837 310.65498 64.93196 
-37.58161 307.20374 70.90534 
-35.96617 304.13951 76.06824 
-35.26222 301.81578 80.22426 
-33.31209 298.14933 86.39387 
-31.74217 295.61447 90.55696 
-30.34693 290.98373 98.84233 
-29.32791 288.82893 102.52699 
-27.55183 285.63433 107.86713 
-25.89688 281.68068 114.72711 
-24.24675 278.99903 119.13614 
-22.89645 275.20353 125.83165 
-21.21354 272.67949 129.92168 
-55.03888 336.78719 16.95668 
-49.66992 332.99259 22.18143 
-47.31508 329.51471 27.89088 
-46.76883 326.69691 33.00515 
-45.90876 323.34596 39.01190 
-43.41815 320.53357 43.41834 
-41.82171 316.46769 50.50790 
-40.84712 314.24350 54.34992 
-38.82555 309.81097 61.97813 
-36.90561 306.89205 66.79014 
-36.71013 303.95045 72.26375 
-34.67183 301.37846 76.37934 
-32.81145 297.02639 83.91377 
-31.89981 293.89730 89.48372 
-30.51718 290.50599 95.37880 
-29.18565 288.23582 99.17939 
-27.21338 284.60165 105.32065 
-26.09869 281.79736 110.20547 
-24.22955 278.53568 115.68178 
-22.89175 274.57308 122.06266 
-21.70269 271.10529 128.16734 
-50.18454 333.74216 16.58067 
-48.05237 330.09101 22.75351 
-46.81460 327.07467 27.98954 
-45.41010 323.71873 33.80784 
-43.81491 320.60990 39.12113 
-42.80445 317.84087 43.96076 
-40.61491 313.54309 51.31035 
-39.44518 310.96516 55.75610 
-38.16718 307.68079 61.47559 
-36.67218 304.66922 66.63589 
-35.45406 300.29632 73.77562 
-33.71481 297.80489 77.92294 
-31.80921 294.80432 82.96425 
-30.01866 291.84530 87.95781 
-28.48944 287.42995 95.69140 
-27.41988 284.47093 100.86321 
-25.90789 281.34927 106.22434 
-24.86650 277.78991 112.50588 
-23.50199 275.35325 116.64505 
-21.23134 271.81647 122.58149 
-20.20936 269.07511 127.36496 
-49.79506 332.46376 14.63968 
-47.66005 328.58287 20.70162 
-46.64848 325.85358 25.45178 
-45.59755 322.00389 32.20979 
-44.10177 319.05374 37.28258 
-41.56638 315.21595 43.79054 
-40.30055 311.52015 50.23876 
-38.75479 308.34573 55.70695 
-37.79516 305.96684 59.83518 
-34.92567 301.86313 66.76987 
-34.16551 299.06405 71.68428 
-33.00576 295.78423 77.40108 
-30.59109 292.20999 83.45419 
-30.68952 290.16195 87.15058 
-27.75654 286.59074 93.11836 
-27.35926 283.49918 98.61417 
-25.18571 279.93310 104.68962 
-24.04075 276.90213 109.96146 
-22.40058 273.45876 115.89845 
-21.66143 270.16644 121.70253 
-19.55841 266.89057 127.26717 
-47.73224 328.35802 17.13657 
-45.80793 324.59595 23.63164 
-44.45104 322.31970 27.54928 
-43.36103 318.62235 33.98429 
-42.12647 314.16422 41.74837 
-40.02178 311.16747 46.88562 
-38.22180 308.07521 52.21018 
-37.24376 304.88399 57.76195 
-34.86268 302.61535 61.60023 
-34.31829 299.39099 67.23813 
-33.35913 295.12781 74.67699 
-31.27493 292.39370 79.35341 
-29.69366 289.45071 84.42954 
-28.70886 285.21740 91.81420 
-26.70471 281.83076 97.64372 
-25.49191 279.73028 101.26130 
-24.24091 276.49153 106.87919 
-22.29395 273.01438 112.87166 
-21.08036 268.83011 120.15528 
-19.51550 265.87721 125.25003 
-51.11023 329.11961 11.90554 
-47.66606 326.58909 16.34103 
-45.93474 322.73935 23.01112 
-43.36532 318.98560 29.53446 
-42.92161 316.71523 33.45533 
-42.55835 312.67135 40.42937 
-39.46762 309.44840 46.04987 
-37.44655 306.02608 51.99018 
-36.12457 302.65681 57.82339 
-34.41870 299.30506 63.63507 
-32.75175 297.23911 67.23089 
-31.79403 292.87830 74.76415 
-30.72475 290.09338 79.58524 
-29.60381 287.58202 83.93620 
-27.21031 282.94111 91.98378 
-25.51050 280.37491 96.44220 
-24.93828 277.11873 102.06410 
-22.54823 273.28073 108.72839 
-22.74492 271.11991 112.44635 
-19.73763 267.92022 118.02499 
-18.77845 264.25392 124.36188 
-48.42376 327.94110 10.19391 
-46.37736 324.20786 16.70872 
-44.88264 320.58766 22.97442 
-43.45945 317.55277 28.24513 
-41.05577 313.46323 35.39913 
-39.24202 310.66310 40.31523 
-38.63928 306.70569 47.05495 
-36.78691 303.49144 52.67395 
-34.36137 301.33266 56.57302 
-33.30147 297.24766 63.57663 
-31.35228 295.14790 67.32566 
-31.85676 291.52200 73.38864 
-29.24012 288.23118 79.21796 
-27.84202 284.41040 85.81171 
-26.40209 282.09993 89.86204 
-25.04606 278.37861 96.28366 
-22.26396 274.51184 103.10190 
-21.92464 271.50778 108.20559 
-20.48802 268.84206 112.85495 
-19.05205 264.51187 120.31200 
-17.58306 261.92938 124.82450 
-46.68550 324.96025 11.74240 
-44.85036 321.71589 17.44743 
-43.53922 318.92091 22.31161 
-41.54257 315.52424 28.29867 
-40.35379 311.51201 35.15095 
-40.48372 307.52724 41.70999 
-37.38233 305.90041 44.98061 
-36.04440 302.67327 50.56379 
-34.76090 299.33336 56.32306 
-32.61988 295.20229 63.55061 
-31.91520 292.91898 67.45543 
-29.80034 288.73628 74.76336 
-29.14086 286.18024 79.11029 
-27.15477 282.79343 85.07909 
-25.44806 279.78114 90.37660 
-24.05121 276.59681 95.90015 
-23.19239 273.10223 101.83514 
-21.33962 270.08521 106.67464 
-19.78411 266.95781 112.13652 
-18.40494 262.86799 119.14859 
-17.06431 259.52002 124.93098 
-46.32735 323.55118 10.53405 
-44.72571 320.90388 15.24691 
-43.34827 317.05188 21.84908 
-42.24818 314.03243 27.02976 
-40.32295 311.30109 31.96529 
-40.30833 306.75460 39.32616 
-36.97158 303.67042 45.21077 
-35.84244 301.41751 48.66183 
-34.80457 297.59870 55.11270 
-32.85595 294.79338 60.18276 
-31.21146 291.33647 66.21912 
-30.10992 288.13714 71.68833 
-28.37032 285.04789 77.15810 
-26.78869 281.41407 83.46237 
-25.04876 277.64802 90.02414 
-23.19551 274.61903 95.42843 
-21.16858 271.50066 101.02537 
-20.85949 268.57628 105.82975 
-19.57656 265.51347 111.12938 
-18.10330 262.25475 116.79818 
-16.39975 258.41291 123.47209 
-45.40350 321.82714 9.54803 
-43.72876 318.11692 16.00916 
-42.28376 315.50526 20.65238 
-41.17680 312.11186 26.40993 
-39.31100 309.08704 31.85642 
-39.69406 303.79156 40.08655 
-36.36353 302.78761 42.86373 
-34.67743 299.02804 49.40691 
-33.02878 295.03968 56.29821 
-32.37177 292.48026 60.57710 
-30.54334 289.66170 65.68436 
-28.34330 285.86334 72.47259 
-27.67269 283.26938 76.81095 
-25.81529 278.91852 84.34965 
-24.42189 276.69697 88.35802 
-22.45440 272.58750 95.55469 
-20.64926 269.26737 101.44608 
-19.70909 266.79570 105.68760 
-18.68821 262.54454 112.76966 
-17.85485 259.70518 117.55396 
-43.81845 319.09596 10.99378 
-42.12541 316.65093 15.51296 
-40.60149 312.53202 22.54838 
-39.09556 309.66700 27.63596 
-38.75752 305.06887 34.89709 
-36.58920 302.15037 40.35548 
-35.59727 299.90979 44.25343 
-32.09347 297.25780 49.88027 
-32.51257 292.85063 56.51668 
-29.78727 289.55039 62.80792 
-29.44881 286.81273 67.19077 
-27.73603 283.91377 72.42083 
-26.24029 280.01659 79.10092 
-25.10375 277.27326 83.83957 
-23.27054 273.08076 91.12337 
-22.05971 270.23988 96.04528 
-20.88778 267.21223 101.23923 
-19.26035 264.01884 106.88771 
-17.52312 260.95279 112.38692 
-16.19809 256.73823 119.48381 
-44.64743 318.91609 7.43858 
-42.49300 316.40235 12.34787 
-41.32581 313.10140 17.94453 
-40.87814 310.11459 22.69737 
-38.97377 305.60303 30.50469 
-38.43259 302.96436 34.77807 
-34.65945 299.87158 41.39229 
-34.18158 297.47015 45.27397 
-32.35870 293.30211 52.51930 
-31.33648 289.66205 58.55543 
-29.36115 286.59087 64.21742 
-26.79420 283.73685 69.85308 
-26.31892 280.38499 75.17296 
-25.28196 278.01182 79.29779 
-23.63264 273.87229 86.41118 
-21.89193 270.45749 92.47361 
-20.92849 268.28355 96.25908 
-18.82782 264.61639 102.88785 
-17.99114 261.28926 108.35513 
-15.87887 258.63120 113.46142 
-14.76074 255.36860 118.97491 
-44.06877 317.74171 6.06605 
-42.12560 314.11713 12.58041 
-40.15155 310.60135 18.95166 
-39.21895 308.09323 23.21732 
-37.19428 304.13995 30.26678 
-37.95884 299.96640 36.00375 
-34.23981 298.18067 40.83600 
-32.51156 294.32358 47.56871 
-31.89863 291.98192 51.39980 
-29.73393 288.34607 58.06104 
-27.93341 286.11736 62.42256 
-27.50638 282.57561 67.92325 
-26.16333 277.94914 75.57001 
-24.24198 275.34395 80.56056 
-22.58041 271.73622 86.88448 
-21.11311 269.05061 91.72743 
-19.02031 266.58670 96.60931 
-17.61287 262.49829 103.49638 
-16.99520 258.89322 109.20295 
-15.15961 255.06778 115.48478 
-13.69455 252.37912 120.33443 
-43.12076 315.98851 5.79625 
-41.24991 312.07699 12.70924 
-39.49911 308.78186 18.64884 
-38.19196 305.06827 24.90076 
-35.26217 303.03378 29.79493 
-35.30613 299.07477 35.50604 
-33.25932 295.38017 42.22131 
-31.08605 292.56738 47.74190 
-30.38682 289.57285 52.54779 
-29.57891 286.21828 57.94785 
-27.01323 282.49751 65.04539 
-25.64479 279.13171 70.36372 
-24.31277 275.56168 76.42197 
-23.45347 272.14685 81.93707 
-21.20389 270.42819 85.93841 
-20.58869 265.52701 93.43710 
-18.52881 263.87293 97.21713 
-17.51106 260.15705 103.27421 
-15.59605 256.31273 110.12215 
-14.56158 253.66304 114.64950 
-42.14903 314.31995 5.44791 
-40.46496 310.23418 12.48557 
-38.77275 306.98679 18.34080 
-37.50531 304.35849 22.51983 
-33.88411 301.52787 29.23770 
-34.30240 297.20334 35.03390 
-32.71044 293.26988 41.78665 
-29.94366 290.90248 47.20858 
-29.87924 287.97084 51.39913 
-28.27082 284.21169 57.91794 
-27.45110 281.10230 62.92661 
-25.24182 277.17958 70.12760 
-24.04654 274.52246 74.77919 
-22.39217 271.84583 79.80299 
-20.81721 267.65350 86.90875 
-19.88310 264.07306 92.66885 
-18.56473 261.39991 97.43549 
-16.80931 258.66987 102.61060 
-14.72494 255.15197 109.14586 
-13.72603 251.38883 115.21275 
-41.82970 313.29900 3.19586 
-40.58777 311.08271 7.28258 
-38.70491 307.75839 13.42907 
-38.12042 302.71729 20.87094 
-36.52593 300.45967 25.30646 
-35.37087 296.21792 32.11713 
-33.22330 294.59081 36.13992 
-31.43907 291.62247 41.71342 
-29.90807 288.37608 47.46121 
-27.55964 284.47715 54.78604 
-27.05678 282.04038 58.56563 
-25.69186 277.77648 65.58045 
-24.01497 274.20308 71.90035 
-22.61513 272.22366 75.79077 
-20.96728 268.06556 82.89367 
-19.33902 264.94820 88.54382 
-18.03169 261.65629 94.16937 
-16.75319 258.03514 100.22553 
-15.79993 255.23500 104.87932 
-13.63815 252.14090 110.93881 
-12.62533 247.99013 117.50614 
-40.69521 311.02631 3.80336 
-38.26615 307.22300 11.12582 
-36.23136 304.32120 16.87692 
-35.81348 301.21785 21.43641 
-33.65907 298.23053 27.41096 
-33.05135 294.17832 33.42067 
-31.54748 291.23890 38.74204 
-29.27088 288.75820 44.14449 
-28.40045 284.04791 51.27865 
-28.38396 281.02299 55.36926 
-25.43957 277.61945 62.61945 
-23.81328 274.85088 67.82136 
-22.63068 271.61944 73.24542 
-21.09323 268.53728 78.78943 
-19.98788 264.88507 84.71055 
-18.61505 261.57554 90.41196 
-16.27797 259.73269 95.00977 
-15.53050 256.11903 100.55509 
-14.47478 252.79742 105.98584 
-12.57381 248.27767 113.79574 
-41.23063 310.42239 0.55224 
-39.25193 308.20278 5.41475 
-37.71060 304.16288 12.23889 
-36.40340 301.64551 16.83225 
-35.38088 298.57738 21.86926 
-33.00612 294.45049 29.62737 
-32.35919 291.08276 34.68867 
-30.63934 288.19371 40.17619 
-28.45780 285.77136 45.50462 
-27.67498 282.09121 51.11007 
-25.86739 278.88093 57.10595 
-24.66671 274.93552 63.47092 
-22.06899 272.31415 69.47016 
-21.93290 269.55679 73.22704 
-19.87974 266.43094 79.35353 
-18.45535 262.51066 85.90546 
-18.21258 259.46478 90.14635 
-16.09254 256.53738 96.07788 
-14.00133 253.24533 102.46019 
-13.26639 248.95909 108.81494 
-11.83749 246.52328 113.42079 
-43.45063 308.38881 -2.85235 
-39.47874 307.43304 2.59537 
-37.93745 303.81390 8.86679 
-35.34989 300.69642 15.60901 
-33.81092 297.41193 21.44971 
-32.27203 295.54086 25.48106 
-31.94389 291.03120 31.60220 
-30.42647 288.06833 37.00823 
-28.61420 283.99118 44.15399 
-26.70526 281.34759 49.56798 
-26.01599 277.11966 55.71238 
-23.94442 274.20128 61.65098 
-22.60729 271.99662 65.89481 
-21.64065 267.42401 72.77544 
-19.94008 264.48894 78.34085 
-19.01430 261.99337 82.51958 
-17.24759 259.01951 88.20490 
-15.46475 254.74139 95.57653 
-14.34127 252.35640 99.82405 
-12.88128 248.68562 105.57245 
-11.37744 245.99927 110.61425 
-38.58461 305.68959 2.10123 
-37.28783 303.01816 6.91278 
-35.29103 300.57784 12.23841 
-34.05454 295.80515 19.59729 
-32.66864 293.34748 24.24477 
-31.17703 288.95733 31.41956 
-29.49172 286.15889 36.83445 
-28.26095 282.50107 42.79852 
-27.38283 280.14629 46.73638 
-25.11282 277.70720 52.37343 
-22.78989 273.99275 59.15372 
-22.07742 269.76022 65.22686 
-20.96084 267.27441 69.60166 
-19.33423 263.97467 75.57615 
-18.38028 260.09991 81.48515 
-16.45962 256.60944 88.03618 
-14.43954 254.75734 92.67079 
-13.81040 250.77378 98.33888 
-12.19481 247.01755 104.86647 
-11.08281 243.95501 109.95122 
-39.08762 305.70176 -2.30730 
-37.38073 301.30956 4.54669 
-35.75394 298.56653 9.86981 
-33.62641 294.72139 17.14181 
-32.90535 291.93068 21.39777 
-31.15017 288.50026 27.70794 
-30.11171 285.83866 32.20252 
-28.21286 282.64424 38.40710 
-26.93352 279.73440 43.49962 
-26.12443 275.99662 49.00515 
-23.87169 272.37733 56.16077 
-22.73494 270.12673 60.28240 
-20.74029 266.41235 67.23198 
-19.54133 262.98371 72.84945 
-17.56057 260.46509 78.34193 
-16.70808 256.68576 83.95140 
-14.87820 253.20921 90.41008 
-13.69888 250.75889 94.82493 
-12.50044 247.97805 99.66166 
-10.84111 243.78511 106.77114 
-9.51760 240.53137 112.33271 
-42.24766 301.77358 -6.43095 
-37.52243 302.54383 -1.05110 
-35.94835 298.91078 5.28097 
-34.07902 295.48525 11.76308 
-32.21227 292.60409 17.60629 
-31.77767 289.35028 21.98156 
-30.23641 285.73224 28.25244 
-28.63126 282.63880 33.99597 
-27.36771 279.86366 38.91397 
-25.51826 276.88436 44.84878 
-25.23875 272.05063 50.86204 
-22.97708 270.32434 55.88209 
-20.89335 267.14520 62.36153 
-19.80089 262.98636 68.66725 
-17.70597 260.28554 74.60332 
-17.50074 257.15315 78.53196 
-15.17641 253.86866 85.45403 
-13.62596 251.13339 90.70688 
-12.38896 246.68660 97.54067 
-11.34925 243.37225 102.79066 
-9.73674 241.04980 107.64402 
-37.09817 300.91302 -2.68703 
-35.59261 298.07339 2.65494 
-34.75069 294.70935 7.64690 
-32.40776 292.12195 13.89227 
-31.17381 288.35366 19.89683 
-30.33739 285.30407 24.52629 
-28.00961 281.68893 31.91026 
-27.10283 278.61239 36.66980 
-25.19677 276.03052 42.28895 
-24.47667 272.93306 46.80718 
-23.00514 269.76190 52.47489 
-21.64051 266.56018 58.02547 
-19.68041 263.45341 64.31390 
-18.56729 260.28928 69.46521 
-17.36918 256.64812 75.27538 
-15.57553 253.63784 81.21875 
-14.53360 250.47667 86.26564 
-12.38713 247.05578 93.17303 
-11.15116 243.21397 99.26345 
-10.19574 240.09206 104.14329 
-8.32282 237.25860 109.99953 
-36.37697 298.44922 -3.18511 
-35.02210 296.09499 1.42817 
-33.37006 292.23069 8.13527 
-31.63834 289.91510 13.27689 
-31.00330 286.10681 18.38423 
-29.07485 281.60973 26.19871 
-28.03165 279.73570 29.81761 
-26.47227 275.68729 36.58518 
-25.10102 272.56537 42.05920 
-23.92010 270.05157 46.58291 
-21.21968 266.94389 54.05270 
-21.21090 262.79413 58.58432 
-19.77838 260.20290 63.57330 
-19.16156 255.89055 69.20190 
-16.81586 254.09608 74.70499 
-15.14508 251.36469 80.20691 
-13.57718 247.23176 87.07930 
-12.28485 245.08987 91.36694 
-10.94928 240.07326 98.84991 
-9.03694 238.19942 103.78375 
-8.03111 235.45597 108.29269 
-37.67957 296.99148 -8.25904 
-35.45756 294.90933 -2.49856 
-34.25475 292.31484 2.15617 
-32.25628 288.72577 9.13430 
-30.88839 286.39839 13.77524 
-30.16782 283.22582 18.25825 
-28.59113 279.16773 25.04784 
-26.89699 275.91173 31.18685 
-25.42494 272.77399 36.84421 
-24.54441 269.98192 41.18655 
-23.03830 266.38309 47.38153 
-21.71191 263.85204 52.16886 
-20.39659 259.08329 59.28131 
-19.01732 257.06117 63.62125 
-17.15243 254.25532 69.56411 
-15.59791 251.37724 75.08235 
-14.50487 248.27455 80.09227 
-12.88111 244.57840 86.57864 
-11.36380 241.45978 91.63931 
-10.08778 239.03386 96.23905 
-8.52042 234.21617 103.80206 
-35.92036 295.21730 -8.39415 
-34.55079 290.84634 -1.66115 
-33.07590 288.61886 3.10210 
-31.68774 285.28380 8.82785 
-29.95649 282.47730 14.61166 
-28.72296 278.97739 20.23772 
-26.97304 275.35519 26.87169 
-25.91841 271.27706 32.77090 
-24.99339 268.93310 36.70821 
-23.01186 265.36553 42.97690 
-21.39153 261.87450 49.25921 
-20.16330 259.41047 53.83982 
-18.67591 256.21127 59.60125 
-18.09216 252.18493 64.62386 
-14.99425 249.99261 72.16806 
-14.89937 246.13964 76.17218 
-13.02338 242.42069 83.12392 
-11.92736 240.88383 86.55171 
-10.46081 237.16941 92.79059 
-8.85795 234.03316 98.68905 
-7.83415 231.33727 103.14714 
-35.17059 293.18514 -10.18469 
-34.31258 289.69151 -5.27739 
-32.41838 286.86133 0.13046 
-31.33864 283.20919 5.58595 
-29.66830 279.03419 12.62506 
-28.02776 275.77609 18.73821 
-27.04638 273.24974 22.94362 
-25.59504 270.72045 28.01649 
-23.82119 266.65893 35.13821 
-22.82050 263.64493 39.84235 
-21.26455 260.33946 45.84503 
-19.82997 257.02557 51.63230 
-18.81455 254.38173 56.01200 
-16.99905 250.74449 62.80737 
-15.50710 248.12622 68.03954 
-14.32320 245.54871 72.66611 
-13.39754 242.32440 77.43179 
-11.45157 238.80915 84.35138 
-10.18343 237.21921 88.19513 
-8.79517 232.12792 95.58534 
-7.59414 230.34330 99.49028 
-34.25717 289.66848 -11.47357 
-32.95892 286.41515 -6.00436 
-31.56553 282.21671 0.50128 
-29.81388 279.15907 6.68166 
-28.46681 275.68106 12.44832 
-27.57032 273.00872 16.60796 
-25.99353 269.64167 22.72462 
-24.72290 266.12645 28.37521 
-23.27160 262.51939 34.46201 
-22.20757 261.10230 37.82019 
-20.82982 256.34598 44.79735 
-19.28413 255.10790 48.93702 
-17.47797 252.23391 55.05871 
-16.66531 248.89939 59.65038 
-14.72129 244.07826 67.79432 
-13.14844 241.46609 73.22383 
-12.46582 238.91000 76.86018 
-11.18787 234.93020 82.94326 
-9.65121 232.30331 88.31520 
-8.39125 229.74417 93.08456 
-7.04499 226.58596 98.56172 
-33.85554 285.45471 -13.01216 
-32.37558 281.68258 -6.73611 
-31.64194 278.88131 -2.83641 
-29.91636 276.24028 2.99355 
-28.64422 273.28064 8.14882 
-27.34299 270.13645 13.52093 
-25.38781 265.87222 21.20357 
-24.37960 262.77368 25.92671 
-22.85106 260.28878 31.21403 
-21.48811 257.08875 36.76187 
-19.99689 253.87226 42.59099 
-19.03116 250.60281 47.37049 
-17.17327 248.01177 53.43377 
-15.96436 245.23844 58.29953 
-14.74093 242.24337 63.38349 
-13.51058 239.01557 68.67869 
-11.86996 236.01904 74.63273 
-10.95727 233.25214 78.87641 
-9.32297 229.09696 85.79828 
-8.39281 226.42501 89.99758 
-6.99334 223.08100 95.74349 
-34.09998 280.86782 -16.52119 
-32.07028 277.23554 -9.15308 
-30.23053 274.57396 -2.97223 
-29.21593 272.03271 1.28368 
-27.70614 268.05587 7.77066 
-26.30598 265.09438 13.21335 
-25.11646 261.90592 18.36776 
-23.98926 259.42585 22.82496 
-22.54631 255.90225 28.80617 
-21.28589 253.70901 33.33254 
-19.44335 249.84912 40.46528 
-18.51194 247.55465 44.34189 
-17.12897 245.07447 49.36652 
-15.90027 241.37746 55.00922 
-14.20333 238.69020 60.89367 
-12.75620 234.38038 67.50457 
-11.79325 232.71937 70.95107 
-10.26805 228.12555 77.95919 
-9.06223 227.08843 81.45200 
-7.47139 222.16163 88.86845 
-6.13717 219.65154 93.80881 
-32.14987 278.96320 -17.98969 
-30.87352 275.78442 -12.66096 
-29.72685 271.62636 -6.92727 
-28.33020 269.35065 -1.97081 
-27.14415 266.87891 2.63022 
-26.03216 262.99472 8.08311 
-24.35615 260.28051 14.01877 
-23.21929 257.10659 19.01387 
-22.07695 254.53197 23.58630 
-20.47402 251.41447 29.64231 
-19.26617 248.82068 34.38356 
-17.64935 244.84761 41.09471 
-16.59411 242.22088 45.49907 
-14.93851 238.52446 52.10037 
-13.66438 235.46629 57.33601 
-12.80525 232.81154 61.29719 
-11.26277 230.60765 66.54608 
-9.80942 226.92535 72.65918 
-8.24092 223.60396 77.69587 
-7.07488 221.40927 82.05321 
-5.65244 218.13195 87.79940 
-4.60015 214.76838 92.72418 
-30.95747 278.61652 -22.72166 
-28.81874 277.15072 -16.35708 
-27.84012 274.55150 -12.17419 
-26.37359 271.30756 -6.33479 
-25.11651 268.48934 -1.30431 
-23.69786 264.99117 4.58188 
-22.36154 261.42787 10.30309 
-21.20149 258.66329 15.05308 
-19.51827 255.65189 21.28640 
-18.51220 253.22993 25.42204 
-16.80266 249.99800 30.73890 
-15.45953 246.68084 36.31370 
-13.94038 243.60474 42.18031 
-12.55118 240.60272 47.66792 
-11.73147 237.88954 51.51697 
-9.87686 233.80333 58.89406 
-8.84579 231.56901 62.97101 
-7.36641 227.47022 69.39988 
-6.20492 225.49491 73.64122 
-4.72821 222.89230 79.09253 
-3.49627 219.31678 84.55171 
-2.24021 216.48747 89.58796 
-1.06338 213.74596 94.36546 
-27.95709 278.26224 -23.00625 
-25.81279 278.55144 -17.38519 
-23.69799 275.02704 -10.76423 
-22.37253 271.89586 -5.35633 
-21.11492 268.71259 -0.10351 
-19.79356 264.64097 5.83199 
-18.72412 261.43129 10.58690 
-17.31383 259.28303 15.66318 
-16.06587 256.22458 20.81808 
-14.54852 252.89967 26.86034 
-13.44749 249.78985 31.64389 
-12.20820 247.39477 36.39535 
-10.93122 244.79241 41.36815 
-9.41182 241.10771 47.62219 
-8.26369 238.87149 52.03385 
-6.84565 235.42704 57.87374 
-5.29122 230.94782 64.67819 
-4.05898 228.40606 69.49437 
-2.91539 226.88969 73.48141 
-1.60534 223.34109 79.08652 
-0.40196 220.39230 84.05715 
0.95007 216.72025 89.84713 
2.21574 214.15062 94.77054 
-24.99903 277.49075 -24.33473 
-22.40377 279.56191 -17.75301 
-21.41018 276.35721 -13.28119 
-19.73064 273.76339 -7.10102 
-18.17120 269.59274 -0.50200 
-16.97405 266.68594 4.42003 
-15.65509 264.12917 9.52725 
-14.29853 260.39388 15.32009 
-13.13702 257.82391 19.97314 
-11.81789 254.86236 25.27868 
-10.53013 252.16093 30.36551 
-9.19446 248.14968 36.23199 
-7.88935 246.19773 41.00333 
-6.63605 242.74725 46.35498 
-5.09255 239.20107 52.60234 
-3.77844 235.20235 58.39966 
-2.29223 232.55030 64.04261 
-0.83451 229.37112 69.85994 
0.25175 225.78909 74.78732 
1.39007 224.50573 78.74420 
2.70931 220.29187 84.66170 
3.85764 218.26588 89.01041 
-20.80939 282.79491 -22.90626 
-19.03963 278.83025 -15.77366 
-17.83394 277.12391 -11.30571 
-16.57522 272.86913 -5.66836 
-15.26673 270.52641 -0.62625 
-13.71631 266.17276 5.96848 
-12.24547 263.62530 11.60216 
-10.75917 259.94653 17.72988 
-9.77958 257.30099 21.85509 
-8.09659 252.92954 28.87447 
-6.71068 250.24950 34.29309 
-5.45663 247.69791 39.24570 
-4.36635 244.67514 43.86801 
-3.03334 241.68582 49.24145 
-1.52571 238.11072 55.39534 
-0.34211 235.89800 59.99306 
1.04629 232.25866 65.79677 
2.04122 229.52101 70.00658 
3.63761 225.28655 76.69932 
5.11540 222.78602 82.33668 
6.38767 219.51527 87.62973 
7.63154 217.45348 92.35764 
-17.76061 282.78493 -21.89428 
-15.72292 279.01893 -13.88521 
-14.54961 276.41276 -9.14853 
-13.58268 273.69973 -5.08397 
-12.04259 270.39237 1.10096 
-10.43797 266.52163 7.66605 
-9.19865 263.65835 12.70085 
-8.07260 260.25936 17.50255 
-6.58794 257.02826 23.47714 
-5.04438 253.51636 29.73200 
-4.17635 251.49794 33.26212 
-2.32316 247.02470 40.84499 
-1.40086 245.67885 44.36786 
0.39554 241.24656 51.74595 
1.66415 237.83814 57.03574 
2.55739 235.93737 60.61780 
4.15492 231.37464 67.35625 
5.35294 229.86021 71.86557 
6.98104 225.50623 78.64845 
8.22777 223.58683 83.43898 
9.31804 219.35947 88.35543 
10.51396 216.95757 93.11065 
-14.31353 282.86715 -19.06401 
-13.14703 280.35396 -14.34871 
-11.89023 277.08120 -9.17686 
-10.25038 273.43503 -2.52970 
-9.01209 270.21636 2.56457 
-7.35058 265.92198 9.39646 
-6.13904 263.63492 14.24189 
-4.63269 260.14328 20.37120 
-3.77495 257.99503 23.88673 
-2.31728 254.63004 29.81543 
-1.08112 251.86062 34.82963 
0.22364 248.82961 40.13956 
1.67875 245.01804 46.13096 
3.29130 241.28034 52.69207 
4.73734 238.06976 58.55294 
5.78468 235.72988 62.80022 
6.94824 233.64536 67.43591 
9.06878 228.39836 74.74608 
9.89433 227.02139 78.02965 
11.30686 223.83262 83.76589 
12.80671 219.85363 89.94054 
-12.54194 285.15725 -22.32372 
-11.10693 281.81956 -16.47759 
-9.70027 278.91993 -10.75289 
-8.18911 274.95156 -4.58951 
-6.59524 271.50521 1.89979 
-5.80633 269.46511 5.11689 
-4.22506 265.79211 11.55871 
-3.05976 262.96315 16.30804 
-1.70855 259.97173 21.81038 
0.02915 256.49034 27.41899 
1.33159 253.61794 32.72697 
3.07993 249.39392 39.84943 
4.15718 246.46439 44.23577 
5.39813 244.20337 49.29654 
6.72067 240.49567 54.68043 
8.28802 237.18954 61.06938 
9.27724 234.64368 65.09820 
10.69264 231.75667 70.86819 
12.09832 228.75577 76.59771 
13.62634 224.33898 82.81724 
14.68935 222.68297 87.15460 
16.04159 219.73982 92.66579 
-9.73463 286.11283 -22.49882 
-8.11951 282.52793 -15.87870 
-6.95642 279.68381 -11.16001 
-5.43803 275.97999 -4.99797 
-3.80876 272.45868 1.69790 
-2.69505 270.14378 6.29156 
-1.40468 266.69427 11.47235 
0.06800 263.30931 17.48735 
1.47225 259.66623 23.14583 
2.98867 255.66848 29.24490 
4.40802 252.49069 35.05735 
5.30575 250.83328 38.79912 
7.02692 246.50413 45.75989 
8.03778 244.69371 49.98324 
9.85612 240.07461 57.32837 
10.83812 238.15457 61.40178 
12.28678 234.95906 67.34353 
13.58443 231.50094 72.55523 
14.88997 227.63103 77.72686 
16.26354 225.06425 83.44598 
17.86428 221.14884 89.94045 
18.76751 219.22174 93.65667 
-7.52473 283.65974 -24.80575 
-6.19127 284.42829 -17.80584 
-5.22866 281.67418 -14.08031 
-3.68519 278.69081 -7.53208 
-2.54735 275.75855 -2.99857 
-0.71644 271.13034 4.33208 
0.21418 269.29841 8.26735 
1.90016 265.34606 15.14193 
3.30518 262.00488 20.85176 
4.75162 258.93095 26.87689 
5.68019 256.11238 30.40592 
7.31564 251.96509 36.94900 
8.40959 250.03773 41.66501 
10.10834 245.94751 48.54859 
11.32392 242.84850 53.40530 
12.73474 240.11904 59.38956 
14.06722 236.53073 64.63641 
15.45551 233.15971 70.25071 
16.53533 230.98542 74.79705 
18.00546 227.65814 80.83949 
19.25027 224.85114 85.95962 
20.63761 221.53209 91.58987 
-4.74567 286.77885 -21.77698 
-3.14618 283.80961 -14.72674 
-1.73750 280.14491 -9.22348 
-0.42957 276.76114 -4.10111 
0.60075 274.61618 0.28412 
2.08659 270.76267 6.09739 
3.37314 268.22276 11.66616 
5.09032 263.92242 18.48683 
6.53908 260.43175 24.33453 
7.77922 257.89484 29.64255 
9.25384 253.93570 35.32086 
10.60991 250.54592 40.71171 
11.78202 248.31489 45.84094 
12.84826 245.42729 49.93014 
14.35382 242.66690 56.58937 
15.97796 238.86668 63.21992 
17.33418 235.41434 68.56967 
18.73237 231.75491 74.01750 
19.61302 230.22805 77.97164 
21.19022 226.73698 84.54464 
22.74724 222.75995 90.67735 
-2.74920 285.57975 -25.79722 
-1.90765 286.51730 -19.38762 
-0.68754 283.64211 -14.42112 
0.83366 280.00706 -8.28145 
2.39334 276.39232 -1.87151 
3.55606 273.57164 2.77814 
5.24003 269.90694 9.94210 
6.24640 267.42400 13.92441 
8.10161 262.82641 21.24434 
9.15550 260.48758 25.68186 
10.43819 257.61026 31.05087 
11.71466 254.11787 35.75110 
13.55200 250.20117 43.65139 
14.45142 247.77289 46.99643 
16.17756 244.25027 54.57888 
17.24497 241.66726 58.85404 
18.92658 237.49461 65.48376 
19.87526 235.44278 69.53258 
21.44555 231.72320 75.90428 
22.97106 227.83821 81.81678 
23.86242 226.47990 86.20323 
25.53418 222.02390 92.47959 
-0.28380 285.08664 -27.38823 
0.27535 287.24409 -19.92290 
1.65387 284.63334 -13.36222 
2.98670 280.97274 -8.71627 
4.69764 277.08219 -1.54533 
5.70716 274.38360 2.08387 
7.50236 270.30802 9.61840 
8.93945 266.81801 15.30996 
10.03716 264.43207 20.07549 
11.15213 261.79728 24.59984 
12.78527 257.83765 31.07828 
13.94148 255.30789 36.07222 
15.40079 251.87896 42.02428 
16.76863 248.58022 47.47556 
18.24732 245.10013 53.49756 
19.73934 241.50349 59.44723 
20.58261 239.73682 63.20693 
21.90315 236.89230 68.97822 
23.69216 232.47313 75.95206 
25.03899 228.95939 80.92314 
26.07740 226.79671 85.57263 
27.52581 223.47980 91.60892 
1.57012 290.27842 -23.50001 
2.84948 287.19002 -18.45864 
4.56884 283.26152 -11.20188 
5.88064 280.12944 -5.95760 
7.53050 276.43744 1.17416 
8.55706 274.01638 5.34307 
9.97498 270.63356 11.01743 
11.67473 266.73745 18.16430 
12.75131 263.93261 21.96006 
14.06970 260.84162 27.35395 
15.50181 257.44159 33.12113 
16.59091 255.01010 37.84121 
18.40187 250.61982 44.93719 
19.49885 248.06549 49.46318 
20.99913 244.38430 55.24609 
22.01418 241.94003 59.25910 
23.50730 238.77968 66.10566 
25.13524 234.71854 72.23614 
26.52202 232.44736 76.92401 
27.59483 230.16561 81.84846 
29.46279 225.65534 89.19313 
4.50490 289.17699 -20.75046 
5.56850 286.72580 -16.25389 
6.95660 283.50201 -10.46505 
8.36678 279.93931 -5.50886 
9.87755 276.59787 1.32937 
10.89022 274.43290 6.15364 
12.42065 270.59169 11.61362 
13.67153 267.84319 17.33397 
15.51981 263.42273 24.63038 
16.58269 260.97921 29.14336 
18.13060 258.00113 33.61233 
19.66287 254.42275 39.94420 
21.40166 250.11264 46.27737 
22.45348 247.74225 50.91757 
23.87837 244.54573 57.25320 
25.16743 241.35049 61.94872 
26.31547 238.73956 66.93227 
28.05927 234.44188 73.36877 
28.91920 232.74299 77.97864 
30.56874 228.85002 84.65588 
31.83338 225.88671 89.84793 
7.44636 286.33439 -26.75070 
6.76988 289.60253 -20.99577 
8.00251 286.89993 -14.97410 
9.95517 282.32745 -6.91280 
11.43341 279.58254 -2.68166 
12.99565 275.88426 3.55544 
13.98507 273.61171 7.88651 
15.73304 269.51023 15.06469 
17.15924 266.14097 20.79679 
18.24969 263.48753 24.75682 
19.49643 260.68098 30.52612 
21.05060 257.06564 37.07990 
22.61518 253.17448 42.30258 
23.92228 250.05816 47.40059 
25.30484 246.86963 53.38149 
26.43387 244.38350 58.90924 
27.48386 241.93257 63.29114 
29.10775 238.07212 69.68581 
30.50994 234.77769 75.42037 
31.98914 231.26314 81.25566 
32.93001 229.11543 85.44725 
34.28801 226.02995 91.57595 
8.79223 291.68031 -21.85786 
10.12916 288.56744 -16.07741 
10.95452 286.63784 -12.59060 
12.96634 281.86120 -4.85410 
13.96750 279.46625 -1.19038 
15.42586 276.09897 5.40971 
16.82440 272.78904 10.89833 
18.35819 269.15272 16.85238 
20.03442 265.12291 22.77803 
21.04275 262.81862 27.59019 
22.12622 260.28455 32.15681 
23.78471 256.40287 39.11826 
25.29471 252.79949 44.73559 
26.61571 249.69985 50.19845 
27.75413 247.01469 54.76150 
28.84731 244.46285 59.42019 
30.07524 241.65219 65.23328 
31.84882 237.36994 71.31168 
33.01146 234.68104 76.52760 
34.15673 232.02084 81.54607 
36.16575 227.21364 88.88466 
11.46899 291.18965 -20.11367 
12.40690 288.98081 -16.39427 
14.39727 284.27417 -9.25663 
15.45799 281.78942 -4.52492 
16.55151 279.23957 0.81515 
17.96410 275.90177 5.98203 
19.52545 272.24147 12.83508 
21.00393 268.73754 17.83086 
22.42440 265.40306 23.89136 
23.46628 262.95892 28.39970 
24.93904 259.49038 34.23658 
26.45130 255.91078 39.52060 
27.78230 252.81032 46.14368 
28.69667 250.67210 50.36779 
30.99670 245.22063 58.12133 
31.82704 243.26163 61.27675 
33.42661 239.52541 68.83624 
34.57584 236.80631 72.89800 
35.73481 234.10199 78.48496 
37.20015 230.65650 84.51239 
38.24776 228.22754 90.17388 
14.24825 290.81359 -26.66633 
13.93072 291.29022 -19.87478 
15.28974 288.05514 -13.19405 
16.65484 284.84436 -7.64233 
18.06340 281.56198 -2.83084 
19.44760 278.30159 2.93783 
20.69688 275.35476 8.27018 
22.14867 271.93096 14.44733 
23.64274 268.45685 19.32546 
24.81384 265.68280 24.67288 
26.20617 262.40951 30.28807 
27.67737 258.95811 36.00420 
28.67325 256.60316 40.42989 
30.43796 252.45858 47.42373 
31.60193 249.70455 52.64444 
32.84587 246.75349 58.45861 
34.41675 243.09112 63.87712 
35.53487 240.46307 68.36893 
37.34212 236.23366 75.07943 
38.29401 233.94633 80.39936 
39.35790 231.44570 84.67513 
40.92589 227.76626 90.79481 
15.45256 293.65834 -22.55831 
17.02432 289.99632 -16.57767 
18.52258 286.42063 -9.85743 
20.03870 282.84113 -3.52273 
21.66957 279.07051 2.33352 
22.87852 276.20834 7.47910 
23.99507 273.59813 11.83311 
25.21775 270.68641 17.24183 
27.44974 265.60294 24.33279 
28.32385 263.38174 29.87514 
29.70168 260.16842 35.15548 
30.58427 258.01241 39.71014 
31.93642 254.89596 44.44842 
33.59282 251.08052 50.22539 
35.57149 246.49452 57.46541 
36.70783 243.77034 62.70931 
37.90631 240.87856 68.46368 
38.60695 239.14743 72.31444 
40.15837 235.47795 78.87634 
41.24613 232.88580 83.70893 
42.55086 229.81410 89.05557 
17.69701 294.76184 -25.38438 
18.74468 292.21816 -20.48870 
19.67635 289.78826 -14.80591 
21.60499 285.36287 -7.82957 
23.03546 281.91707 -1.36122 
24.15309 279.25518 3.45258 
25.30585 276.53554 8.21261 
26.79373 272.98919 14.64186 
28.05798 270.15131 18.71601 
29.64248 266.36642 25.62838 
30.93355 263.27322 31.33345 
32.12096 260.54788 35.63428 
33.23568 257.86520 40.65494 
34.74359 254.35296 46.52289 
36.39261 250.54875 52.64945 
37.36501 248.14621 57.52279 
38.90535 244.59402 63.23528 
40.86847 240.81572 70.15994 
42.03955 237.90996 76.07563 
42.92245 235.80383 79.89475 
44.39700 232.39823 85.42518 
45.78024 229.04183 91.83810 
20.68535 294.68356 -26.89966 
20.74605 293.39461 -19.65851 
22.31260 289.66263 -12.98977 
23.56445 286.97312 -9.44669 
25.40977 282.60440 -1.75725 
26.38134 280.17920 3.05431 
27.73285 276.91318 9.09101 
28.83611 274.23878 14.06874 
30.38055 270.85439 18.84465 
32.35319 267.09829 25.56977 
33.20817 264.94599 29.88875 
35.05559 260.73927 36.59338 
36.52751 257.40100 41.85534 
37.70830 254.58688 46.88224 
39.28661 250.98633 52.64888 
40.57337 247.81472 58.74923 
41.46921 245.67324 62.60072 
42.58378 242.87640 68.17905 
44.14801 239.38540 73.43536 
45.37337 236.42026 78.91731 
47.23281 232.11632 86.07921 
48.31116 229.38723 91.61146 
22.42710 295.79808 -22.80339 
24.52773 292.13504 -17.45483 
25.85410 288.72067 -10.59101 
27.24441 285.49070 -5.12738 
28.76504 281.96577 0.81039 
30.02555 279.09541 5.47585 
30.74767 277.03369 10.21851 
32.74139 272.46795 17.72589 
33.80393 270.15187 21.14622 
34.81274 267.51854 26.54742 
36.52480 263.79024 32.03983 
37.97907 260.47765 37.42708 
39.06191 257.70643 42.95031 
40.26923 254.83131 48.04384 
42.28352 250.14267 56.00455 
43.55198 247.25051 60.71792 
44.40358 245.09758 64.93087 
46.41008 240.54359 72.28229 
47.08317 238.74650 76.08555 
48.67831 234.88898 83.10637 
50.35177 231.24013 88.49759 
25.70401 296.01006 -23.01781 
27.10879 292.74977 -17.48552 
27.91781 290.09904 -10.95100 
29.92656 285.99848 -5.47246 
30.89558 283.68873 -1.39278 
32.31764 280.05177 5.66495 
33.49044 277.54357 9.35808 
34.99301 273.70357 16.80295 
36.92733 269.68649 22.37511 
38.38705 266.42637 27.57056 
39.02363 264.59634 31.60506 
40.08908 261.91465 36.70580 
41.77592 257.96261 43.50941 
43.26767 254.57977 49.04074 
44.43657 251.55769 54.98319 
45.29290 249.31186 59.47449 
47.34698 244.87597 66.12878 
48.30736 242.77335 69.36380 
49.77321 239.21744 75.80286 
51.30132 235.60692 82.09818 
52.24983 233.38529 85.92117 
28.65203 296.13784 -22.45049 
30.18201 292.38751 -15.62874 
31.35552 289.44678 -10.14679 
32.65426 286.21698 -4.17658 
33.68140 284.06988 -1.03721 
35.41994 279.99860 5.97539 
36.45304 277.40041 10.83727 
38.09856 273.65755 17.04473 
39.49615 270.25202 23.19733 
40.90512 267.17220 28.02650 
42.38367 263.99616 32.87749 
43.39771 261.43768 37.68139 
45.01243 257.49775 44.81037 
46.25519 254.56050 49.92817 
47.49108 251.70915 54.74650 
49.17393 248.09074 60.28108 
50.35679 245.00077 66.29554 
51.66162 241.88320 71.79888 
52.50653 239.64635 76.21046 
53.52177 236.95274 81.53325 
55.18521 233.14223 87.91270 
30.73254 298.44070 -25.22265 
32.00636 295.11629 -18.86771 
33.49543 291.68538 -13.05561 
34.63370 288.94112 -8.18110 
36.45254 285.10662 -2.34769 
37.48929 282.24149 3.39092 
38.54741 279.46814 8.71216 
40.01418 276.22445 13.95434 
41.73746 272.37006 20.26720 
43.41181 268.54815 26.67457 
44.46941 265.98967 31.23462 
46.09541 262.31060 37.34157 
46.74112 260.24677 41.90796 
48.64559 256.55148 46.88006 
49.62528 253.84854 52.28728 
50.82531 250.92778 57.52413 
51.76298 248.28353 62.90261 
53.64100 244.42272 68.57586 
55.04900 241.12098 74.27585 
56.18910 238.44475 78.90091 
57.21546 235.57120 84.71430 
34.51111 297.44531 -22.80196 
35.82000 294.02151 -16.33356 
37.01365 290.86974 -10.33739 
38.39369 287.75319 -5.14219 
39.50597 285.37158 -1.38353 
41.07617 281.89098 4.31270 
42.32702 278.86961 9.66891 
43.99089 275.09014 16.00537 
45.46643 271.73022 21.65165 
46.36945 269.49051 25.71123 
47.86092 266.33339 30.63135 
49.35477 262.73780 36.98621 
47.69073 262.44243 44.06910 
48.41901 260.19582 48.79276 
53.28047 253.58704 52.70525 
54.68432 250.01006 59.32926 
55.34344 247.95107 63.68974 
57.38764 244.02863 69.09999 
57.93943 241.74037 74.60931 
59.22266 238.60628 80.21798 
60.60051 235.54303 85.24591 
62.08714 233.11357 89.69217 
37.27880 298.63027 -23.15599 
38.51807 295.50249 -17.45108 
39.78616 292.57861 -12.46660 
41.22426 289.11612 -6.36158 
42.90252 285.55025 -0.70214 
44.09561 283.03602 3.25759 
45.26348 279.35101 10.90833 
46.90638 276.09987 15.70986 
47.99987 273.13804 21.36692 
49.24064 270.61350 25.20629 
50.73417 267.48246 30.11264 
50.35749 265.95599 36.01956 
50.98023 263.23086 44.10401 
51.75716 261.07956 48.25962 
55.95637 255.79012 51.33742 
57.63675 252.02312 57.61577 
59.35149 248.09966 64.26541 
59.26834 246.93074 68.09919 
61.25583 242.88381 74.27548 
62.11702 240.56208 78.68930 
64.18073 236.38468 85.02677 
64.63773 234.20448 90.26877 
37.33356 303.29390 -25.59434 
38.55985 299.85466 -18.98237 
39.62398 297.02035 -13.68246 
40.98721 293.75846 -7.96735 
42.84680 289.95008 -2.03914 
44.34758 286.81411 4.48930 
45.41922 284.37571 8.61708 
47.13621 280.82541 14.20042 
48.49866 277.29678 20.68721 
49.83493 274.08981 26.31550 
51.10949 271.23023 31.10768 
52.14477 268.78289 35.36081 
53.81472 265.14655 41.32085 
55.32451 261.76401 46.98380 
56.50293 258.71939 52.57328 
57.67664 255.80899 57.78726 
59.48178 251.91538 64.12267 
59.99892 250.09607 67.97216 
62.11738 245.81109 74.58504 
63.35527 242.94280 79.50243 
63.97636 240.89413 83.73158 
66.14510 236.45280 90.65951 
38.89696 304.03323 -19.84350 
40.32034 300.83337 -14.45205 
41.57489 298.08349 -9.89384 
43.13664 294.84781 -4.73531 
44.55408 291.08154 2.22765 
46.44931 287.74386 6.86888 
47.81212 284.86732 11.51628 
48.72538 282.14255 16.82203 
50.45067 278.45116 22.84248 
52.15173 274.65119 29.21937 
53.54326 271.55023 34.41484 
54.39891 269.63687 37.62771 
56.55827 265.21121 44.62826 
57.58358 262.74286 48.96106 
58.49238 259.71975 55.09779 
60.65785 255.54492 61.39406 
61.57385 253.06873 66.00994 
62.29200 250.81480 70.48798 
64.28370 246.63467 77.21458 
65.33840 244.38108 80.88657 
66.80551 241.19084 86.14699 
67.49407 238.62686 91.54820 
37.88331 307.83285 -18.61101 
38.88676 305.08432 -13.50283 
40.78693 301.56440 -8.25738 
42.69607 297.41580 -1.37851 
43.61801 295.30095 2.23618 
45.30487 291.44134 8.82413 
46.38505 289.06195 12.80087 
48.01056 285.44752 18.87373 
49.89775 281.79150 24.50419 
51.18508 278.77132 29.72819 
52.69846 275.72689 34.53919 
53.87231 272.53393 40.45650 
55.45587 268.88100 46.71892 
57.22339 265.34253 52.29268 
58.48776 262.13395 58.05999 
59.74243 259.69882 61.81525 
61.41614 255.88843 68.30167 
62.56536 253.28984 72.70854 
64.09817 250.03207 78.03922 
65.47550 246.92812 83.29394 
66.26985 244.50142 87.99729 
37.90281 310.03847 -16.15716 
39.17824 306.61008 -9.88036 
40.51170 303.50173 -4.51906 
42.48197 300.36299 -0.26541 
43.79458 297.14981 5.39934 
45.38831 293.07544 12.71368 
46.46942 290.80562 16.42883 
48.18063 287.02573 22.78177 
49.40637 284.05506 27.99635 
50.83802 281.16326 32.62867 
52.99046 276.87567 39.44195 
53.76309 274.80666 43.22433 
55.93511 270.14981 50.93259 
56.94299 267.77013 55.06104 
58.65439 263.92692 61.57356 
59.86791 261.32779 65.87344 
61.62627 257.41983 72.46172 
63.28086 254.17782 77.56278 
63.87843 251.94442 82.08581 
65.53904 248.37579 87.99988 
66.53950 246.09384 91.89582 
36.62539 313.83577 -15.97801 
38.06163 310.55430 -10.36179 
39.15751 307.55794 -4.87992 
41.27482 303.47187 1.57317 
42.61856 301.15070 5.00769 
44.14378 297.19229 12.12248 
45.85183 293.77518 17.62200 
47.23745 291.19855 21.60825 
48.48613 287.42154 28.73627 
50.65016 283.89363 33.75653 
51.73249 280.71861 39.69461 
53.61407 277.00410 45.63195 
54.56518 274.16798 50.96211 
55.82281 271.93248 54.32971 
57.78947 267.44700 62.00068 
59.28329 264.24206 67.33624 
60.71666 260.98281 72.90285 
61.71148 258.10774 78.25587 
63.31023 255.08995 82.96449 
64.63254 251.57347 89.33841 
66.46623 248.41855 95.03947 
35.15790 317.16539 -15.08847 
36.79264 313.96814 -9.94926 
39.00671 309.89558 -3.59360 
39.89797 307.51514 0.70399 
41.46821 303.72433 7.32959 
43.46929 300.34998 12.35454 
44.87546 296.55424 19.22886 
46.20318 293.52963 24.40734 
48.13837 289.95831 29.98992 
49.10702 287.39509 34.60449 
50.41910 284.52332 39.44653 
52.21211 281.00699 45.10592 
53.72438 277.73542 51.52610 
55.33563 274.67631 56.38323 
56.41331 271.79364 61.58614 
57.95201 268.43990 67.23430 
59.93003 264.71234 73.13206 
60.68341 262.23080 77.85842 
62.60474 258.60428 83.60083 
63.13481 256.14254 88.59778 
65.04257 252.80586 93.68239 
34.84247 318.90438 -12.72385 
37.13573 316.08709 -9.23626 
38.68621 312.42007 -2.87433 
39.88264 309.18174 2.96378 
41.41248 305.57316 10.04922 
42.95206 302.71652 14.59151 
44.19528 299.66347 19.94785 
45.76101 296.44880 25.26747 
47.60483 292.55523 31.77603 
49.38711 289.24170 37.04917 
50.83672 285.48354 43.74329 
51.91275 283.03695 47.93585 
53.16160 280.27884 52.61810 
54.79502 276.75652 58.54916 
56.97974 272.24531 66.02993 
57.95297 269.79743 70.35381 
58.47324 267.28090 75.39803 
60.95936 262.83454 82.35612 
62.68819 259.35935 88.06151 
63.31332 257.03809 92.53329 
65.18953 253.28424 98.68546 
35.86624 320.21395 -10.53565 
37.36340 316.58649 -4.20390 
38.94585 313.33552 1.20871 
40.05612 309.46917 8.48675 
41.87041 306.08279 13.94371 
43.41537 302.43021 20.27872 
44.42090 299.79803 24.96130 
45.70932 297.11546 29.44619 
47.65230 293.10372 36.13606 
49.15108 290.24175 40.78565 
51.10168 286.29790 47.31807 
52.51216 283.56899 51.77185 
53.84948 280.22107 57.66405 
54.97089 277.58738 62.22392 
56.57370 273.63678 69.15004 
58.11276 270.83730 73.61853 
59.70966 267.32118 79.59733 
61.35377 263.56558 86.05040 
62.58977 260.39525 91.66343 
64.20934 257.02818 97.29030 
64.48777 254.78849 101.90373 
35.51520 321.56607 -7.93823 
36.81121 317.99903 -1.55174 
37.98053 314.71561 4.34963 
39.86315 311.87013 8.64183 
41.55641 307.87488 15.56659 
42.75922 304.89233 20.79412 
44.42471 301.20432 27.08973 
45.64367 298.06169 32.64348 
47.12011 295.07073 37.63017 
48.48241 292.03351 42.82358 
50.25275 289.24181 47.10711 
51.51375 285.27429 54.38146 
53.30819 282.31727 58.99510 
54.47136 278.68357 65.64969 
56.16250 275.44961 70.95195 
57.22342 272.86177 75.47122 
59.50471 269.17869 81.17385 
60.03866 266.38413 86.63263 
62.72456 262.34029 92.72262 
62.84234 259.87774 97.86645 
64.33193 256.84718 102.92527 
34.79082 323.66605 -6.92578 
36.26517 321.11180 -2.81734 
37.67834 317.09649 4.37589 
39.44413 313.36299 10.69734 
40.80228 310.17417 16.21861 
41.69140 307.62437 20.79315 
43.72127 304.18803 26.28287 
45.23821 300.59131 32.52245 
46.46782 297.66472 37.60334 
47.90753 294.33165 43.35773 
49.08849 291.42830 48.42975 
51.11742 287.06609 55.84365 
51.72065 285.02357 59.59673 
54.28104 280.51197 66.88897 
55.26233 277.93204 71.45148 
57.20240 274.38121 77.25199 
58.49448 270.71879 83.81056 
59.93559 268.09044 88.09992 
61.19598 264.83477 93.83949 
62.53797 261.60048 99.46807 
34.66570 325.33841 -5.75481 
35.92375 322.53144 -0.93766 
37.29309 319.24687 4.76993 
38.80145 315.66877 10.97632 
40.19837 312.13675 17.16584 
41.58681 309.31528 21.92256 
43.22878 305.66541 28.18222 
44.77776 302.00497 34.52707 
46.40055 299.31065 38.86525 
47.87904 295.87272 44.80812 
48.98303 291.95727 51.97577 
51.11463 288.59553 57.31489 
51.33561 286.41651 61.57478 
53.63163 282.10603 68.72150 
54.88008 279.42206 73.29625 
56.36291 275.56957 80.07566 
58.01385 272.44457 85.26630 
59.71900 268.64207 91.79124 
61.74948 265.56168 96.63022 
62.50644 263.30301 100.68235 
33.48070 328.61807 -7.30437 
35.66898 325.54038 -2.47753 
36.29221 321.98073 4.19757 
38.06077 317.85906 11.32719 
39.60402 314.84881 16.39023 
40.79308 311.68786 21.95372 
43.07894 308.19444 27.54596 
44.40394 304.37832 34.32575 
45.40638 301.42633 39.58349 
46.82897 298.88236 43.79437 
48.54195 294.98003 50.52241 
49.79595 292.09907 55.49570 
51.08960 288.21679 62.42440 
52.70317 284.95827 67.93752 
54.18430 282.19751 72.54316 
55.83645 278.79593 78.31682 
57.45671 275.69450 84.28342 
59.17273 272.18616 90.23594 
59.90742 269.03809 96.02227 
61.18679 266.23115 100.83646 
62.81151 263.34696 105.61172 
36.16184 331.49059 -9.83602 
31.95154 328.44018 -2.02999 
33.98245 325.23506 3.21519 
36.59229 322.00866 8.23637 
37.89576 318.40101 14.59050 
39.01574 315.32180 20.01037 
40.72974 310.86183 27.81864 
42.29948 307.89059 32.82451 
43.49581 304.88459 38.06841 
45.96529 302.26025 42.58626 
47.67512 298.20456 49.61727 
49.38992 294.59404 55.79122 
51.11736 291.28189 61.38673 
51.80724 289.03366 65.39832 
52.90380 284.98841 72.68080 
54.97856 281.16481 79.10448 
55.99666 278.73580 83.31810 
57.44521 275.63691 88.62744 
59.16494 271.47064 95.86653 
60.46641 268.96561 100.10069 
62.80940 264.96613 106.74349 
35.00571 332.06769 -6.22181 
33.75602 329.02392 -0.05230 
35.37268 325.94657 5.71542 
36.00343 323.63168 9.84446 
38.40943 318.98839 17.74061 
39.84547 315.67147 23.47692 
40.55125 312.98329 28.28099 
42.42752 309.69920 33.80660 
44.35848 306.62777 38.91505 
45.40757 302.79951 45.74137 
46.93559 299.43585 51.53434 
47.74915 297.06016 55.71550 
49.45874 293.74667 61.35274 
51.95657 289.41543 68.63261 
52.99044 286.58710 73.58843 
53.78353 283.45729 79.19119 
55.98564 280.09739 84.74899 
57.52595 276.44065 91.08736 
58.95463 273.59091 95.94975 
60.31455 269.85988 102.48876 
61.98430 266.58455 108.06775 
